> GMT_LATLONDEPTH
> out/cube/20240212A/PointSource/FF_4hours
35.95030680123657 -120.52939771296705 11.672267525878318 0.6258812862126425
35.9490911990107 -120.52557514606058 12.180935374719736 0.6204351366354225
35.949560867413254 -120.5269055061138 12.715331914253403 0.6128875095352304
35.94829875603209 -120.5298639453267 13.013969062091396 0.6030702880108
35.94765738393477 -120.52659419446033 13.437102010004198 0.5909078949478629
35.95108227429764 -120.52664511571325 14.045688188131708 0.576437765085876
35.95093959215875 -120.5294722702534 14.276455802458758 0.5598106229611888
35.950268203969195 -120.52902226507017 14.762594049921379 0.5412743012840678
35.95175012337945 -120.52672561981495 15.616381876244638 0.5211473123772874
35.951113432104464 -120.52684864770536 16.038993847010534 0.4997886539144259
35.948908555177574 -120.52836746894715 16.631212949155415 0.47756910546833253
35.94982980018798 -120.52846985215054 16.7968491075782 0.45484739101954863
35.94758862113812 -120.52813020973603 17.351412941123524 0.4319527191929748
35.94733002571836 -120.5288154535226 18.165471993002292 0.40917381664856717
35.954095298456444 -120.52742233039379 1.5944086700022901 0.401365187416586
35.952463847776976 -120.52909175828867 2.064033854100113 0.42591063509188787
35.95407730060062 -120.5265363115221 2.482139949825924 0.45133747032684424
35.951929985884604 -120.52908127937049 3.0798937598592575 0.47747629253067686
35.95336041080543 -120.52727135016761 3.4006151884409737 0.5041095813189463
35.95199398266164 -120.52996826135548 4.170453241248092 0.5309699219921441
35.95476420579222 -120.52814692519497 4.725944170127519 0.5577411526790037
35.95242224138386 -120.53032836621794 4.930054096507523 0.5840632610232575
35.95205380163847 -120.52632599411596 5.472625193345094 0.6095415398021952
35.95610490207718 -120.5273513972062 6.060033330469126 0.6337599509866437
35.955630288181816 -120.53050532009651 6.274784447168428 0.6562979394028932
35.95458452965071 -120.52660004804002 7.066879429433525 0.676749029472884
35.953649597829525 -120.52945780851815 7.357154977168684 0.6947389171489826
35.95492893854071 -120.52520484288411 7.885592928630611 0.7099404863691862
35.9554476646019 -120.53038496888901 8.515428946718473 0.7220837099614312
35.95223522809199 -120.52819718369781 9.246595156071136 0.730959613158188
35.95189851682696 -120.52528921648927 9.484730589717715 0.7364191810435896
35.952437602289784 -120.53005297896931 10.056602299486299 0.7383695988831354
35.9546921594386 -120.53019420052503 10.728127997837134 0.7367708923041745
35.95424254476434 -120.5274590660081 10.767346947874238 0.7316354617286199
35.95357111006989 -120.52635065352922 11.601917682070155 0.7230312808793569
35.956220260610195 -120.52508976619784 12.09427308924673 0.7110875031356961
35.95264396887697 -120.52940351139378 12.690412273145729 0.6959996151065109
35.95268492183536 -120.53018154101295 13.09515710620348 0.678030947902236
35.954869454636146 -120.52681377314445 13.538865020856857 0.6575082152539149
35.953050198975056 -120.5266125708377 13.931060831301041 0.6348104668570821
35.95615959855134 -120.5277584015971 14.747281324643076 0.6103525603206456
35.95342104434435 -120.53036649046487 15.176427002224345 0.584565539869021
35.953105640362566 -120.53025226603637 15.47776084822732 0.5578766528854173
35.956258947752296 -120.52894721938544 16.13534847828545 0.5306914959380548
35.952749236219 -120.52705700878435 16.333148256948054 0.5033799246089221
35.9555910486373 -120.529272957847 16.773303954814953 0.4762665107693958
35.95482140623468 -120.5267568786507 17.589260820002423 0.44962551506702314
35.95392344199218 -120.52904628594192 18.124410174998726 0.4236797891530522
35.95963291702028 -120.52531738059919 1.5832426231468544 0.4069170754320077
35.95819913286231 -120.52973864935143 1.937764819511687 0.4328894881576933
35.956464417615585 -120.52720367105101 2.4330487551357987 0.4600166966349029
35.957095937636225 -120.52546761165614 3.2025586617987476 0.4881637099510087
35.95805974875738 -120.52689175481822 3.6613221048185194 0.5171441838415456
35.959361288427715 -120.5271338229649 4.234333822823081 0.5467146416116305
35.95751601706689 -120.52552993619466 4.495626740823328 0.5765704354483665
35.960137144192956 -120.52927229302371 4.8990842352900525 0.6063443777148015
35.956922777862275 -120.5260818611911 5.287449213198826 0.6356090083684846
35.959687120082 -120.52990557358589 6.047553643788329 0.6638833389798489
35.95773398336891 -120.52635710842483 6.373682801052685 0.6906446221187632
35.96055156126942 -120.52625783256634 7.157525596705032 0.7153451949463061
35.95949124428281 -120.52952328505083 7.552676973660332 0.7374338480464852
35.96000452198755 -120.52925750224401 7.809709253661181 0.7563804983545885
35.95745501470798 -120.52512084793962 8.337126485863614 0.7717024004416793
35.96049721645335 -120.52924416100151 9.20223947648024 0.7829897698068269
35.9577608670047 -120.52799055592708 9.28267140494949 0.7899286501569449
35.95961784740497 -120.52725472088494 10.023773288149286 0.792319080387
35.95970332191842 -120.52959130692226 10.496837190167637 0.7900869958378984
35.9606559593855 -120.52827459911914 10.880169268354745 0.7832888878992373
35.96059507393477 -120.52555561605429 11.34723032654379 0.7721087534747144
35.959158487646285 -120.52553253548162 12.068633839937455 0.7568475138249007
35.9563457521051 -120.52833602604682 12.710894077476423 0.7379057264191695
35.960230615653224 -120.52616876102739 13.034921807383311 0.7157610108745163
35.95841843960413 -120.52565201133329 13.526322475672176 0.690942205998059
35.958301199521934 -120.53058498565346 13.93127779777235 0.6640025339084052
35.95813679116201 -120.52609831886363 14.611869688999498 0.6354940772585084
35.95799499953794 -120.52919987586547 15.022847792297659 0.6059454979391149
35.95795837035942 -120.52830460494675 15.3290926021843 0.5758443625167717
35.95678840214072 -120.52596988940329 16.206547710686326 0.545624704628126
35.95863090812705 -120.52812156961713 16.710526447984705 0.5156598064979109
35.95849370035118 -120.53007042925314 17.089100075642015 0.486259644649306
35.960303231829016 -120.52719355424482 17.683016777484966 0.45767214986575533
35.95789190529843 -120.53045359297873 17.969515472277024 0.43008723598655263
35.95634597072359 -120.5289304536 18.3698405226878 0.403642664156344
35.964671755082534 -120.52646022816049 1.6573338003195204 0.4060093404729543
35.964474049064954 -120.52905607069975 1.7521095542395142 0.4322831785454386
35.961766605631574 -120.52896365551362 2.5411100789637384 0.4597997959429154
35.96389873532133 -120.52943299241961 2.917238937886821 0.48843757669584326
35.96508107780884 -120.52572719791588 3.420446242274259 0.5180226692851871
35.9630015961521 -120.5270182775828 4.178051415638526 0.5483217612457202
35.964118609220215 -120.5258624491164 4.687032184906789 0.5790361764627386
35.96441155963784 -120.52975230928071 4.995732706846072 0.6097982593256498
35.96254856301052 -120.5279804298919 5.534535884466845 0.640171202270779
35.96277315427523 -120.52727363938942 5.909708700702326 0.6696534805738767
35.96336173797402 -120.52830373952257 6.529755040320872 0.6976889063359686
35.96395767071882 -120.52711716384215 7.1521663567088245 0.7236829586556927
35.96518768257051 -120.52630756399164 7.451538568101885 0.7470254060891717
35.96495167903757 -120.52990245764781 7.76737320513745 0.7671184345437289
35.96125877142573 -120.52964869121256 8.286850545483926 0.7834085415582671
35.960939016683234 -120.52655540254787 8.901180106199142 0.7954195730355729
35.962941381614534 -120.52731099968143 9.723714366754374 0.8027836765406754
35.962456733943654 -120.53041440687065 9.862409874838802 0.8052667406399027
35.96511259798033 -120.53029248677802 10.592795982067736 0.8027852722517639
35.96452492818517 -120.52809196350263 10.758362734722207 0.7954125706516413
35.963302206717515 -120.52536741978851 11.43027064659314 0.7833733948751213
35.96143537145019 -120.52872940262161 11.90346035343057 0.7670277946976289
35.96524631002271 -120.52771703398166 12.703709032095944 0.746846144024968
35.961558515614584 -120.52983678117958 13.163932880881323 0.7233783771656922
35.96170023834844 -120.52596333647277 13.407206290930128 0.6972208612384104
35.96520365488938 -120.52719091809422 14.085858713348053 0.6689842108364941
35.961374819507114 -120.52983481651198 14.651715039084728 0.6392647330140923
35.96450944842382 -120.52877031852289 14.768611060444199 0.6086213205467117
35.961611052101674 -120.52718579133801 15.469939411670417 0.5775586912934099
35.96254170412856 -120.53029424490416 16.02386549974874 0.5465169493740488
35.96499974464137 -120.53034075076317 16.738028350066415 0.5158668956781556
35.965278072960146 -120.52654356867096 17.148612361302412 0.4859100254074613
35.96380397106749 -120.52564710502601 17.435727730892893 0.45688206058175473
35.962212883758674 -120.53019426805695 18.11504462459305 0.42895885497979547
35.961069442237495 -120.5288466809727 18.6550970436375 0.40226363660773695
35.96737866425066 -120.5297891084896 2.1500463162523333 0.42490943366883144
35.96953222847924 -120.52850226730524 2.3601532332218498 0.45175736616767254
35.96965293479309 -120.52667314521564 2.9724697739384265 0.4796839074331388
35.96850295383389 -120.52891795972208 3.6766982927620937 0.5085194232697343
35.96924094007739 -120.52679437989018 3.920163170037252 0.538036865974405
35.96924251915711 -120.52784785356246 4.311303987066769 0.5679460381365147
35.96774897806459 -120.52612414568321 4.852328188497165 0.5978900354199318
35.96666060483821 -120.52938700401252 5.49806779672345 0.6274449606466717
35.968116877487795 -120.52898277175561 5.8044009814805895 0.6561240667698527
35.96935063278571 -120.52550471501678 6.479141611083276 0.6833873328574943
35.96545913213248 -120.52735630885398 6.895766029560722 0.7086571603707578
35.96807489626947 -120.52959746535649 7.678899117421042 0.7313402702184085
35.96820927395804 -120.5302502735798 8.06623359612131 0.750855078875211
35.96902835455121 -120.52795322210386 8.646953392971046 0.7666629007042676
35.96784767390923 -120.52599028250374 8.776114038097935 0.7783004008198535
35.96844704032447 -120.52815153785674 9.489433486997543 0.785410080442582
35.969802634128776 -120.52680416443232 10.22887153640824 0.7877653447619549
35.966612997320105 -120.52701487843908 10.420889299216817 0.7852870648825178
35.96625111518282 -120.52952002864924 10.782440268087548 0.7780494780027147
35.96947654913534 -120.5292186343866 11.588807922026023 0.7662746355027125
35.96864090543249 -120.52574494278869 12.235233089440914 0.7503161228930316
35.96894917837572 -120.52705398104338 12.366502060186027 0.7306342029285462
35.96606283201798 -120.5253994303109 12.813796058464453 0.7077654080270498
35.96597545718132 -120.52642565318189 13.67529861238658 0.6822900632307891
35.96799752040419 -120.52509699176156 13.827863764649683 0.6548009774966292
35.967890965577055 -120.5269575868056 14.309753430592064 0.6258758948928104
35.96979348948732 -120.52659707800358 14.768636390405662 0.5960554125783645
35.965616173279514 -120.52598168377773 15.303706409688123 0.5658271054731712
35.96626031462203 -120.52807436649657 16.016776711514396 0.5356157989813858
35.96795384052019 -120.52834212854869 16.54215312622265 0.5057793244106447
35.96842082977354 -120.52807187400454 17.03297220429329 0.4766087329989525
35.96588429269728 -120.52568083424165 17.450951889958727 0.44833182985231246
35.96793842526159 -120.5281627583599 18.054780683975363 0.4211189042143523
35.970588593552 -120.52810824418147 1.753975505529775 0.4117450919440271
35.973777833476 -120.52701375061415 2.7490001316213637 0.437119177149278
35.97249331066213 -120.52808524178691 2.9844035625257512 0.4634386877378873
35.97113680543272 -120.52945933765378 3.495337538590498 0.4905367419735416
35.97342046368197 -120.5303187262719 4.061658844345837 0.5181944079605059
35.972352566641085 -120.52668661214663 4.703223492900336 0.5461362050156816
35.97386393623924 -120.52676765861656 5.211323930579708 0.5740276492701273
35.974030925527416 -120.52767840654204 5.479768747035212 0.6014758253489041
35.9706752255138 -120.52936610583235 5.811936207279525 0.6280338807965019
35.970569885731635 -120.52907334052702 6.283776554383277 0.6532102779182872
35.973892005825284 -120.52627223507186 6.851657019831125 0.6764832689630561
35.97049825145482 -120.53015349155415 7.269483410566624 0.6973205727052462
35.97313001612863 -120.52824251855107 7.764556406342354 0.7152035491574106
35.97280086913678 -120.52593607192735 8.696094086231989 0.7296543687833601
35.97099517612411 -120.5287841348334 9.026076914188415 0.7402639878787883
35.971921136428854 -120.52778453109087 9.521689529034848 0.7467181989982707
35.973031690586424 -120.52570328889547 10.227561989376273 0.7488188995737763
35.9708449809088 -120.5296443242247 10.427739961936602 0.7464980382326222
35.973280127561544 -120.52713048587552 11.208608630572508 0.7398224815474224
35.973056612913894 -120.52726976526628 11.439389479115933 0.7289891785855351
35.97169100206965 -120.52992451410204 12.230457175033235 0.7143112463287081
35.97429844947511 -120.52521303804832 12.632105633575943 0.69619670948702
35.97227633853057 -120.52768766267296 13.061705850692082 0.6751224581972296
35.97024423740872 -120.52568059370977 13.47404702632011 0.6516062676620097
35.97211111462463 -120.5292155438738 13.787129127004674 0.6261796022480973
35.97403358007877 -120.52602754299652 14.499385929858567 0.5993634357455359
35.972551767109465 -120.52840035763907 14.794225869503128 0.5716485649259112
35.971794530980816 -120.5280351691734 15.578443168856142 0.5434811159301846
35.9716032303435 -120.52868607632148 15.90910755701875 0.515253307684703
35.97146244438703 -120.5253442441897 16.506385684661545 0.4872989623997013
35.97259670767115 -120.52801133463252 16.990893364064593 0.4598929554089344
35.973324367875925 -120.52873662555507 17.713405199144034 0.4332536890563491
35.972919861547204 -120.52567333134299 17.83449969331603 0.4075476269872087
35.977406729185745 -120.52630309054369 2.7178751441358915 0.4171657190317187
35.975677148826826 -120.52612325224509 2.9740816884456294 0.4412595444119657
35.97701110734671 -120.52952038933918 3.484706284318954 0.46595545777008784
35.97581353441406 -120.52600832761486 4.1509583822540685 0.49104710942303154
35.97647565556896 -120.52751891421978 4.378873668722041 0.5162806863976243
35.97524235942343 -120.52975175231826 4.839825120509831 0.5413538595258269
35.975505687656494 -120.52792892778152 5.299953623947852 0.5659173540722987
35.977820805583995 -120.52640965137509 6.034853290768363 0.5895797618197094
35.97473423351217 -120.52654145871038 6.652835820214871 0.6119161740722108
35.97492183233274 -120.52617529350269 7.0962717325769535 0.6324808540864227
35.97524743947378 -120.52829393316404 7.4531288782590055 0.6508238267433019
35.97603014025533 -120.52855339133482 8.037195293237522 0.6665106948884243
35.978187044040446 -120.52680960110513 8.5595556122858 0.679144459428706
35.9756951823176 -120.53025228120308 9.149105489917082 0.6883876095392166
35.974610214052625 -120.52641248610054 9.632595264453453 0.6939824476594623
35.978131153693944 -120.52787074797105 9.78138972165405 0.6957674901981143
35.975571688368554 -120.52562693274287 10.522579563296256 0.6936881323862757
35.97629176212574 -120.52602794420842 11.072880598246787 0.6878002989274645
35.97645334669728 -120.52686234304481 11.448154261638136 0.6782666359651341
35.97810565484068 -120.52519681449732 12.2208691612978 0.665345727655046
35.97493385890373 -120.52692018878909 12.489271499808554 0.6493755748104937
35.97555811951748 -120.52824083270433 12.762243635533194 0.6307532307184428
35.97671133679617 -120.52748393166226 13.660171317506311 0.6099126864089397
35.97574654641314 -120.52577027391854 14.233260366923329 0.587303081850989
35.97630330361426 -120.52539071715339 14.34485094509556 0.5633689525430667
35.977976431495144 -120.52887483975373 15.116487071403084 0.5385337300515115
35.976229192892156 -120.5293700873764 15.252962014418516 0.5131871606635093
35.97458339820604 -120.52948384799357 15.793574001881675 0.48767678173893103
35.976420336965354 -120.52905100133042 16.33687656637848 0.462303195275529
35.97849500237149 -120.52835781953382 17.15527203578466 0.4373185852170306
35.9758316277303 -120.52680824365557 17.273471045234214 0.4129278343530579
35.983121205948436 -120.5273807846775 2.751695442401791 0.41463270830971266
35.97930613548392 -120.52987082182736 3.5698718375178338 0.4365319507194078
35.98212546085405 -120.52573361439461 3.809837272419197 0.4586548956914287
35.98265840663374 -120.52961035746577 4.4662632164792955 0.4807752826839
35.98330782493738 -120.52671313944603 4.887473779497143 0.5026296521360839
35.98314127981415 -120.5292638065992 5.32017946505478 0.5239196535557562
35.982361624146414 -120.52789340368899 6.094517372362567 0.5443168661607909
35.98041885190962 -120.52563572551504 6.433276328474689 0.5634704460934882
35.9815815604767 -120.52625931393383 7.076126804731977 0.5810176279035696
35.98110879460221 -120.52917456314736 7.388063717245996 0.5965968826514875
35.9791456144537 -120.52659014473265 7.784552253868366 0.6098631336785615
35.980960468559125 -120.5263271643613 8.282536823107392 0.620504098840282
35.980090227844975 -120.52556227030405 8.913551271387009 0.6282565131500796
35.979660032251545 -120.52896976933872 9.616325051156387 0.6329208077273379
35.980530144517616 -120.52677847269337 10.236512899697535 0.6343728080368196
35.97884712685776 -120.5265939129059 10.732679056978311 0.6325712675622549
35.98098844829527 -120.52680406614769 11.033188549877744 0.6275603692155018
35.98094930735158 -120.53060080653233 11.360494996823821 0.6194669702535925
35.979374642063014 -120.52850336408419 12.119442520631004 0.6084928478610111
35.98085011789692 -120.52637695892857 12.580150252733503 0.5949028377263503
35.98108810369294 -120.52820214718201 13.209493684592417 0.5790100398117484
35.98307748022766 -120.52830977830126 13.5940970718514 0.5611595823134078
35.978859412932565 -120.52785513810258 14.04326986332132 0.5417123207569207
35.98105735787539 -120.52537722752415 14.498392458669462 0.5210297105364609
35.982969130988515 -120.53050176883173 14.9112880334829 0.4994607916792559
35.98293207369641 -120.52925436377755 15.593248508628378 0.47733183204836144
35.982970665745356 -120.5256367769568 15.784444975150464 0.4549388538883408
35.982674543718765 -120.52610534354352 16.631694883106768 0.43254293626893414
35.980198159346756 -120.52907765606608 16.760160649547952 0.41036804842688945
35.987475139253284 -120.52537422240692 3.3847278929524673 0.4038352075155614
35.9874809785134 -120.52528521316054 3.975346145917916 0.4228228475849716
35.98776153611371 -120.52548437449225 4.680700023280818 0.4416802250536124
35.98472891245104 -120.52885566103349 5.155091773771214 0.46018625424366216
35.98586244095661 -120.52628335339031 5.325896719768216 0.47809615516058473
35.98439274382856 -120.52666479890065 5.84187493528605 0.4951459367946348
35.98423635693055 -120.52522042648486 6.271065959124575 0.511058777292707
35.98744656067084 -120.52528632373813 7.197061561360938 0.5255532124286281
35.984823669748934 -120.5305759393658 7.5248398471696 0.5383529433563542
35.98695162989979 -120.5285186956003 8.057368538325523 0.5491977387291609
35.9836535699519 -120.52967898976618 8.377069318921532 0.5578548241210473
35.985235435396504 -120.52936387759439 9.050480121664972 0.5641299047196294
35.986737381118814 -120.52611850153576 9.332131631914171 0.5678769621481786
35.98502165053553 -120.52754450500231 9.881302272869087 0.5690059316046473
35.986909639972616 -120.53036439366758 10.262312271437697 0.5674875730268905
35.985376203522435 -120.52700434772784 10.889471914211976 0.5633550383325373
35.98779779031889 -120.52531629480868 11.350179761604567 0.556702008238432
35.98374946025965 -120.52749563346572 11.959303966831667 0.5476775572868144
35.9875895403159 -120.52516591726766 12.307850600675964 0.5364782641036763
35.984049456716406 -120.52581299035037 13.084555728792928 0.5233383014827445
35.9860380339341 -120.52952312447326 13.536402271148484 0.5085183584734955
35.98435407831892 -120.52695592006789 13.838145637564 0.49229430905765703
35.98623617075521 -120.5271434958999 14.639610415045768 0.47494638726161476
35.98532999050376 -120.5306093916702 15.04193383741807 0.4567495600073321
35.9877080375536 -120.52585345779457 15.527346224142676 0.43796548845636046
35.98351928741877 -120.53027214218079 16.045810205919704 0.41883635077403014
35.98850315735776 -120.52790950226401 4.445372179598753 0.4007052783071886
35.990865169779426 -120.52892559275958 5.040720811616759 0.41592435827773705
35.99133518723272 -120.52928169648868 5.543363537793339 0.4305414676951847
35.99130632948182 -120.53032661118313 6.094640191889083 0.4443542244383667
35.99030104527541 -120.52562166191875 6.54480114641347 0.4571549884997689
35.990390387096255 -120.52766871564599 7.124141851367906 0.46873683089534884
35.988276862230826 -120.52763032239174 7.497025531320125 0.47890027483697345
35.9878628036978 -120.52629930682495 8.210078505009195 0.48746048110574647
35.991905169194986 -120.5284632973657 8.749722766551294 0.4942544701756564
35.99225544254982 -120.52559638473019 8.792484712542294 0.4991478962478143
35.99046409543032 -120.5264342278675 9.41641032566421 0.5020409108926694
35.99146951579562 -120.52815506576057 10.018112836959247 0.5028726496794318
35.98893084456883 -120.52678247818045 10.733617640351877 0.5016240224455121
35.99055895062925 -120.52633057631097 10.765030216774537 0.498318553938042
35.98998222925918 -120.52710961924673 11.368300187652036 0.49302123887956323
35.988127232137074 -120.52739572088822 11.762075274395094 0.4858354677345795
35.992068270520996 -120.52837844516037 12.561645223143563 0.47689832720156944
35.98859267406281 -120.52932706621368 12.95759974733746 0.4663745955780759
35.991700806740376 -120.52973961157231 13.373071965061685 0.4544499163721674
35.988795264925905 -120.52708808971873 13.824230281945212 0.4413236037362493
35.9890755342872 -120.52525012144032 14.709261061634125 0.42720156045139407
35.988551823691424 -120.52720203081911 15.049998095079124 0.4122896725529518
35.994430690151844 -120.52897625498716 6.653879055754926 0.40361517264410596
35.9939736620749 -120.52615063906316 6.861343413417627 0.41252750863027077
35.995986632452265 -120.52970775361393 7.274365735286507 0.420288673533316
35.99404545455451 -120.52819535940223 8.007019148757047 0.4267777541073048
35.99425910801559 -120.52803629496157 8.280455360815354 0.4318902457203832
35.99653458915676 -120.53007468510201 9.114218731783543 0.4355415319386314
35.99414244252755 -120.52850445860834 9.410681232698627 0.4376697631854664
35.996627408397025 -120.52716934683596 9.951775641883179 0.438237946421347
35.99281668911236 -120.52783150935325 10.298312605720495 0.4372351949861258
35.99661725322266 -120.52684183771507 11.009038893704435 0.4346770455220015
35.99545332097775 -120.52948027573547 11.378305703676775 0.4306048300264994
35.993219468187164 -120.52668666313012 12.198928207823943 0.425084183315605
35.99433545523011 -120.52964152714486 12.589176149145679 0.41820270853934677
35.99451680274023 -120.52929283913583 13.030213196687175 0.41006697623717625
35.9968350302218 -120.52878193372632 13.714466024105283 0.4007989700697047
35.79614170452466 -120.51987300775575 8.1340331637241 0.4046708607384055
35.794510976092255 -120.52095201571021 8.500660263230936 0.41036366574272753
35.79637144822257 -120.52065885705109 9.207974474374605 0.4144678782175857
35.795577208181214 -120.52035416954766 9.686162193619662 0.41689327108547164
35.796704183192745 -120.52334683942259 9.801485046285523 0.41758433667510364
35.7956351818127 -120.5242879323518 10.28881875522727 0.416523132266435
35.79542396716177 -120.5197528206144 10.757546671291891 0.41373018975736187
35.798198075030555 -120.52353313214556 11.58711997596426 0.4092634409920854
35.79662334908438 -120.52283021398868 12.027643040786582 0.4032152307278875
35.80255329226643 -120.52427241213145 5.610407002711 0.40748687494440256
35.80212280277628 -120.5228725107603 6.058698158345053 0.4221788993711525
35.800591933144176 -120.52259348251522 6.705094361855868 0.4359249368440294
35.80239077315952 -120.52423617943703 6.8440812065191325 0.44847333737790723
35.803039079048204 -120.52332706169113 7.526028068019066 0.4595753889524403
35.80138811849404 -120.52424642790102 8.075266988153563 0.4689954792701537
35.799039037323375 -120.52408083139777 8.611906531398112 0.4765217959696979
35.80115430952646 -120.52064086996587 9.00525486017979 0.4819768119204651
35.802364880219564 -120.52032817145654 9.735846371201582 0.4852266551031232
35.7991557532682 -120.51965550218641 10.071166707011816 0.4861885080337073
35.800965464554736 -120.52498919686393 10.338559126871516 0.4848353359199902
35.80150138884677 -120.52447118536732 10.966595069058695 0.4811974289037846
35.798833862979805 -120.52271022824029 11.642197892056556 0.47536064895264757
35.802620743552104 -120.52385850487154 12.082063977381917 0.46746150725596497
35.79966684159426 -120.52452442315686 12.29001231583229 0.45767961793339607
35.79918679068437 -120.52199479033636 13.10439085541826 0.4462282197201962
35.7992909982738 -120.51991049980208 13.616003800098971 0.4333436546100522
35.800528999798736 -120.52453458008559 14.045832837507561 0.4192746636672869
35.80030448589463 -120.52018004914157 14.47090348841092 0.4042722885444405
35.80693973169639 -120.5218718635956 4.0739530881003985 0.40173046331361406
35.804428838757694 -120.52182672149088 4.484491428049915 0.4215242047541858
35.805528399061444 -120.52089484309539 5.075265004138896 0.44114528331015307
35.805049113712336 -120.52307702105202 5.417040009175061 0.4603197327615677
35.806378267182325 -120.52365783897538 5.8355931893671515 0.4787431913385412
35.80539588890359 -120.52445941178625 6.542614422582209 0.49608804496179126
35.805109529923115 -120.52451320619134 7.1574252980752 0.5120134343963759
35.80513730069292 -120.51994078151098 7.697712288035925 0.5261779482277291
35.80525479258857 -120.52161925081454 8.175737664445833 0.5382544177462296
35.80565899917322 -120.52260944962525 8.471795450285146 0.5479458733341761
35.80690551136179 -120.52071332479585 9.084691373672783 0.5550014490421484
35.80392102514619 -120.51973656148749 9.455795708630701 0.5592307901023819
35.8069259493306 -120.51962000125069 10.19784401443081 0.5605155668395662
35.80713807991793 -120.51958758024536 10.699634610250774 0.5588168621872232
35.80705595254957 -120.52112905729824 10.963119088585115 0.554177643370373
35.80587746474243 -120.52388866111677 11.744314968538047 0.5467200206485625
35.80446318226282 -120.51961144334004 11.932480359196727 0.5366376044969909
35.807032944953704 -120.52488816830196 12.550566825477146 0.5241838019062072
35.80440512605854 -120.52381083286326 13.233259214443073 0.5096572797710425
35.805083271131416 -120.52262604636446 13.362474997309013 0.49338601393293563
35.8069005048257 -120.52240565385304 13.919698589715411 0.4757113527616123
35.80323408835497 -120.52108835653407 14.585148520243552 0.456973292871388
35.80754635664531 -120.52111185373941 15.219310318898868 0.43749794126129504
35.80332252830209 -120.52425438421409 15.460971642901898 0.41758763514016783
35.80868752663745 -120.52406766169466 3.6153564395393447 0.4204087816069388
35.81135850349242 -120.52113120745285 4.009114040805009 0.44399293062882933
35.807755368757476 -120.52238791598207 4.743391771517509 0.4678238507266194
35.81003601649213 -120.52351945811098 4.936702960168608 0.4916102878116305
35.81201699121367 -120.52240666258041 5.406246378015546 0.5150109298372376
35.81024602659863 -120.52014312428571 6.012988117057999 0.5376389585320649
35.80778295908351 -120.52404038664297 6.394299061078682 0.5590706746930368
35.80814967928032 -120.52161867757329 7.0616026480712915 0.5788584785255672
35.80926181724428 -120.52347439447428 7.463099297822392 0.5965480632539456
35.80978692784955 -120.51966787873994 7.8135234844341195 0.6116991032130982
35.809208215800055 -120.5233853234023 8.316680302169821 0.6239080896320819
35.809711765823415 -120.52158635031743 9.181257042020468 0.6328315033163362
35.811824411514785 -120.52275387296739 9.282857256535568 0.6382071094579154
35.80942429431536 -120.52096050031832 9.907080246534205 0.63987114631715
35.80913404677269 -120.52048510272586 10.45495958245668 0.6377694392678589
35.809005826049905 -120.52071581553867 11.23437099632185 0.6319611487020134
35.81038773861427 -120.52273350794708 11.4426438074625 0.6226146730990292
35.8109575535797 -120.52325028251843 11.98533170658189 0.6099962128655637
35.812092145642374 -120.52272459966315 12.412682847525819 0.5944523378898267
35.81093662799773 -120.52228095890345 13.05391727124112 0.5763885422935534
35.809890297346925 -120.51952218403844 13.293723530558186 0.5562460181485713
35.81078372021545 -120.52173146180013 14.07727200724052 0.5344788526623971
35.80790307491336 -120.52118321848816 14.400447840882201 0.5115334647167673
35.81162268684968 -120.52321989213142 14.752969244948428 0.48783158174046726
35.81118470192639 -120.52507013023781 15.585812406599903 0.46375746805229806
35.80940615176116 -120.52474968772425 16.058916322926176 0.4396495089637384
35.80936590589179 -120.52420423644318 16.736676043702257 0.4157958796076559
35.81446198968134 -120.52416421950495 2.6501837325924087 0.4053805738795101
35.814187359681206 -120.51978636015774 2.938537320374518 0.43133363964160576
35.815846429655906 -120.52135167923954 3.25517760335802 0.4582544209460473
35.81217366877638 -120.52488735886637 4.01455317149241 0.48593181370115585
35.81596936690146 -120.52394551525946 4.378235051956013 0.5140901260838856
35.81555489757556 -120.52121948118008 4.858001057029639 0.5423851122814799
35.81323798716323 -120.5214259525685 5.349931038522592 0.5704034827381234
35.81494083946088 -120.52128174433535 5.849120572755536 0.5976670641674731
35.8160364355244 -120.52225146693304 6.429832677627789 0.6236426210754525
35.816417399840624 -120.52506830071074 6.772111923090747 0.6477579942618651
35.81566610742584 -120.5218853002759 7.691459004889944 0.669424561297594
35.814975022939144 -120.52234811672837 7.7819674560538745 0.6880651657395959
35.81302081849587 -120.52011949445951 8.314006706345726 0.7031457624396122
35.81254864622978 -120.52410076166929 8.87331756134537 0.7142081120286726
35.816619929691846 -120.52290299990884 9.690574910517721 0.7209002754467427
35.814766396239236 -120.5234495200775 10.032015740943626 0.7230014711758649
35.81269776454426 -120.51957111472294 10.741342259237209 0.7204382960570823
35.81246284485476 -120.52245784363237 11.014984166822414 0.7132902146461935
35.815572535549315 -120.52077235393347 11.608000885070675 0.7017836190569142
35.81308798559142 -120.52130550107624 11.861519520294825 0.6862752110795721
35.81647949003355 -120.52386077073957 12.706389698813016 0.6672268384359642
35.81545205416441 -120.52479778537658 13.210284443057665 0.6451748188102899
35.81632801712429 -120.51999001179796 13.735102300287242 0.6206971933539903
35.81409839799393 -120.52409390458749 14.068132927872837 0.5943821450169163
35.814051257849634 -120.52015377915966 14.374888744461362 0.5668002358350515
35.81507582284828 -120.52433036684623 14.816735291502612 0.5384821763734582
35.813920741991616 -120.52144983397768 15.499023176793907 0.5099029584564776
35.81523306222555 -120.5244273895169 16.219657642863023 0.4814722861482557
35.81355395782366 -120.5232642511047 16.5992803845691 0.4535306811434465
35.81502226265936 -120.52499041208011 16.813391742989882 0.42635018461507007
35.813163585793745 -120.51989786845644 17.74310945720562 0.40013848601347857
35.81986502179897 -120.5239948258394 2.2153147017589356 0.40603691342561776
35.817029826005694 -120.52373230294374 2.7316648722994668 0.4340911507183165
35.820188252818106 -120.51989247510757 2.932861966368871 0.46360024240764885
35.81725931040775 -120.52189866989308 3.689095238873426 0.49441075382332667
35.820708613432146 -120.52339991331984 4.033480047082002 0.5262975785635947
35.820827916556695 -120.52268450734881 4.297330427690002 0.5589542331768772
35.81854470998026 -120.521967548729 5.035727653458997 0.5919856334581134
35.81996811522694 -120.52419368470652 5.408418057263352 0.6249050404790981
35.81985872030816 -120.52034948167194 5.9109885985349475 0.6571369362361221
35.82052076029424 -120.51972621039795 6.333730195592118 0.6880274489998778
35.81743464277774 -120.52262303512897 7.118227565756317 0.7168635608169754
35.81859945850417 -120.52311131639634 7.437132972663365 0.7429014144298385
35.81895870940701 -120.52455900310724 7.812979458490465 0.7654028777019111
35.8201602243008 -120.52464331347923 8.43879066370284 0.7836780731636362
35.81849673445665 -120.5221275013017 8.960168916584413 0.797130235003588
35.82071445398457 -120.5202299416314 9.595547242904223 0.8052981535049755
35.81932586674622 -120.52383941850262 9.941962705073573 0.8078911852137775
35.81750971597582 -120.52447238147201 10.477060305946587 0.8048122504743913
35.818250603874915 -120.5199541859133 10.903585687623226 0.7961656860778996
35.81951860092896 -120.52010688846826 11.314032892208624 0.7822488271218888
35.81782408256418 -120.51971679330224 12.134951010063501 0.7635285072831763
35.81935662088034 -120.52030886222745 12.265618424734464 0.7406056860727159
35.81740562336677 -120.5223700167721 13.06180472131514 0.7141727759642356
35.820968032724316 -120.52394193229435 13.72751895623699 0.6849687551130872
35.81913503070477 -120.52149843412889 13.88931489330175 0.6537367350359864
35.81743066106947 -120.52450803433048 14.295299961585538 0.621187620404943
35.81788944966443 -120.52212542905045 14.891567224190762 0.587972111120589
35.8205398321862 -120.52221555251252 15.533138279699834 0.5546618260732585
35.82035148686509 -120.52095078310121 15.861141089891678 0.5217391935985285
35.81674765570332 -120.52005275937039 16.4607740732712 0.48959489171199266
35.816693829346335 -120.52112457326648 16.86560827998999 0.4585311344211903
35.81936752786338 -120.52199405434689 17.610251515223357 0.4287690949214393
35.82085506846646 -120.52119242826222 17.942972726247476 0.40045874272296067
35.824022179340886 -120.52409224254413 2.0887506059497363 0.42885871819032145
35.823980885985186 -120.52014643393025 2.378980011212289 0.459977258740087
35.82192382097422 -120.52505941162373 3.178661374512472 0.4929080669383882
35.82338456127392 -120.5199472580071 3.6944804411818017 0.5275056919330352
35.82245080209944 -120.52085041989365 3.977550982400864 0.5635397579228772
35.82448436647377 -120.52256489422194 4.423832329489631 0.600680948329515
35.825674866674696 -120.52190044836487 5.1581412171013215 0.6384894888476966
35.82297668534174 -120.52476104656772 5.493380384175111 0.6764083261458299
35.82387502163465 -120.52103200837765 5.9692641208494095 0.7137635058486268
35.82551704094223 -120.52134497639689 6.608259525664799 0.7497742554021958
35.821533355049255 -120.5248879184351 6.767620005550828 0.7835747415842332
35.82237011904681 -120.52037467406814 7.387300368581129 0.8142484850791426
35.82146271884985 -120.52299427847534 7.972577937477849 0.8408747058465282
35.824815923985156 -120.52249819749008 8.584898424345457 0.862583826503893
35.82294268021776 -120.52295804713329 8.760302800251809 0.8786172629488559
35.821297526525065 -120.52283977982734 9.705136885392768 0.8883849471471867
35.822917610878434 -120.52503533735565 9.985398426414998 0.8915132961018957
35.824186516224245 -120.51962336280587 10.485581777354735 0.88787698990317
35.822945864721994 -120.52065529005166 10.783924010226238 0.8776098829116203
35.823999489607615 -120.52062186480404 11.61604325093517 0.8610933893929498
35.824320357099914 -120.52246368691547 11.970940162697342 0.8389240951966609
35.82185249235541 -120.52059500336053 12.266796728210874 0.8118653411458205
35.82480765996212 -120.51994134748317 13.057379730400173 0.7807894581169909
35.823705998918996 -120.5219859978045 13.554002742445585 0.7466179504470207
35.82270976445734 -120.52292938900082 14.199396254429445 0.7102661474315554
35.82180148074766 -120.52243076306644 14.448650183275074 0.6725971607440534
35.82119254921433 -120.52037186735319 14.853856032848283 0.6343878590748662
35.822535380453 -120.52303740080245 15.354632215651119 0.596307509554801
35.82441870096178 -120.52148089628332 16.086306933482003 0.5589080967460793
35.82395151501133 -120.52192490070136 16.557361566106078 0.5226242899063092
35.82141888690972 -120.52186311744937 16.752234175536326 0.48778053583443415
35.82299914023525 -120.51985696420128 17.282537670916597 0.4546027837814316
35.82345813233647 -120.5229193008856 17.928266686013572 0.4232326379284169
35.826816788662995 -120.52242153186154 1.6482957109905358 0.41639455362597994
35.82779805398123 -120.52368009624092 2.2115692894348937 0.4480171934876474
35.827454441748756 -120.52160111786351 2.5159409128296835 0.4818600696768991
35.82764045531627 -120.5246247141787 3.1753360714142658 0.5178727634160551
35.82896544769023 -120.52033306880584 3.545190594177351 0.5559269738138857
35.827962068315294 -120.52182113978502 4.04573874851077 0.5957974757823495
35.82846254058146 -120.52479115263853 4.613354734013859 0.6371431727144573
35.827554093224876 -120.5248271289178 4.883693279312771 0.6794903203064663
35.827931589371474 -120.52263006655103 5.628744585454752 0.7222207043917479
35.826284500183846 -120.52398001495514 5.8749358586988665 0.7645681421683453
35.827567744060325 -120.51988511874664 6.735811142177327 0.8056268279671734
35.826324716802084 -120.52134556225323 6.961894714773615 0.8443746717038051
35.82988385252988 -120.52090157011956 7.7421795618905875 0.879713464769797
35.826297311436335 -120.5204851413273 8.152725368952872 0.9105256021221644
35.82628998957351 -120.52184522119612 8.554821627155633 0.9357442131424325
35.82673709235969 -120.52259079856911 9.003930988925221 0.9544304528367175
35.82759879285896 -120.52312021823609 9.259439884766788 0.9658491307813785
35.825895493825 -120.52384244308725 10.034390412372273 0.9695325585948945
35.82790310293638 -120.51963233427117 10.493377397828128 0.9653232034205814
35.82753794059393 -120.52441815745142 10.915302716040909 0.9533884039839812
35.82671304148506 -120.52130680784379 11.650765838457724 0.9342048022408327
35.82781364596764 -120.52143239734265 11.756703939230318 0.9085149556012562
35.82878854846266 -120.52417296365395 12.707290790752271 0.8772629625608811
35.82610149945419 -120.52361512424349 12.921123134754023 0.8415185723751689
35.82922667749518 -120.52080642709232 13.453206139704697 0.8023998933375123
35.82914532020458 -120.52034797196019 13.937499413207599 0.7610034886118893
35.826341023293146 -120.52014800311444 14.628293812332414 0.718348043815087
35.827519465922364 -120.51956531815304 14.884260568719801 0.6753346697763789
35.82994249097119 -120.52298469039386 15.339055656313214 0.6327240689734744
35.82569258353195 -120.5197924529716 16.167102692355893 0.5911286405783533
35.8275717577317 -120.5214780646998 16.65896646350852 0.551016367439469
35.82834069914182 -120.52137000707673 17.15165370055927 0.5127229364298759
35.8282850202622 -120.52091753692093 17.691461669175062 0.47646872337002216
35.82779914860583 -120.52319075145714 17.88488922879237 0.44237788262086525
35.82661556797074 -120.52361678485643 18.257552455143475 0.41049742738463424
35.83413142210691 -120.52020300660384 1.2941702171710823 0.42896519772227143
35.8312289050305 -120.52100972795066 1.957174363597884 0.4624574384930651
35.83305670365831 -120.52246375503464 2.5394863444954003 0.4984627601371301
35.83418955776184 -120.52159780912812 3.048531092968875 0.5369608565787963
35.83025436282228 -120.51988626394257 3.5209712511746147 0.5778484059473883
35.83135231165228 -120.52430082309644 3.9405024798267845 0.6209159065123189
35.83193464943858 -120.52454428759184 4.6384191572601825 0.6658236210746414
35.83177912901926 -120.52337981907732 4.972982507680268 0.7120789959963892
35.83083798073948 -120.52413403070715 5.42156040398631 0.75901889605721
35.83179682615061 -120.52079385746141 6.042858606001333 0.8058008682597775
35.83426006827222 -120.52158169198756 6.396514760458548 0.8514082146489712
35.831367194252415 -120.52039924963752 6.991127050432758 0.8946733260347459
35.832955500628465 -120.52339060353344 7.654289795367025 0.9343224473887186
35.83403838328168 -120.52425739481592 8.09056994017073 0.9690423428486615
35.83333829210049 -120.52436889557849 8.427346906418292 0.9975655895513156
35.83019190680942 -120.52358874161777 8.964709451945652 1.0187668879313942
35.83320538158001 -120.5231999288031 9.374841223610863 1.0317589947529269
35.832631832401816 -120.52394187434825 10.079982293116922 1.0359747525874874
35.834665444150076 -120.52122387713787 10.47712675098395 1.0312223524120399
35.83359127471674 -120.5216395138439 10.878923937946773 1.017704526415273
35.831702008147985 -120.52486613231082 11.624925798241454 0.9959983502649981
35.831579336057956 -120.52030041417615 11.804025298593878 0.9669991283540034
35.832269696304856 -120.52369967052384 12.665031721085485 0.9318377586555426
35.83151328403335 -120.520012707723 12.979976874446756 0.8917845312266083
35.8344096466661 -120.52217050744358 13.509351010087947 0.8481528613121851
35.83423190189018 -120.52138306335897 14.08484331140427 0.8022142918098121
35.8313528098513 -120.52138854356566 14.262077410690129 0.7551323191605209
35.83130223314732 -120.51986906888973 14.82235154827399 0.7079181935474645
35.83340469688863 -120.52325107135584 15.54468921259587 0.6614081547036376
35.83222770576979 -120.5222168275552 15.883991340354235 0.6162588803568189
35.83134781831027 -120.52485249153322 16.6558754259839 0.5729566271492209
35.83323814949262 -120.51964326878576 17.24042786118044 0.5318353136708255
35.83380696934378 -120.52268600855344 17.58240158813914 0.4930993094303294
35.833008382466886 -120.52130722448663 18.179740393444522 0.45684759421985227
35.83456641500294 -120.52387701706908 18.36329864131735 0.4230969892529419
35.83656313160257 -120.52089819537419 0.8945369419206647 0.40451748026887624
35.83728115058187 -120.52115301501087 1.436153525902708 0.4364923923559923
35.83741964718293 -120.52356125275705 2.1714087332301335 0.47111872306677416
35.836435072486275 -120.5226953190153 2.4819983335538964 0.5084678467599292
35.837488699820824 -120.52259161811354 2.942220832310237 0.5485496578368939
35.83728089189526 -120.52338487884455 3.395166622863205 0.5912894263686368
35.838607668023606 -120.52008282766836 4.096605322993239 0.6365012876765695
35.83550594251888 -120.52453653220708 4.281957144111716 0.6838597501029334
35.83757998701 -120.52279754273047 5.0642213948157035 0.7328716562904718
35.83881290728288 -120.52240213092985 5.478825400890565 0.7828523184013746
35.83874739840327 -120.52480576168405 6.192756842551714 0.8329108449045635
35.83670860433933 -120.52223723829317 6.507464039242645 0.8819505545195685
35.83572052637313 -120.52214788371916 7.093246864322811 0.9286904477425904
35.83789495156103 -120.52507009351231 7.608746540307899 0.9717123884085458
35.83815608921678 -120.52443373503807 8.183668113063561 1.00953565493579
35.835939396058244 -120.52119512462357 8.338604072090092 1.0407157844705774
35.83739232628541 -120.5199516973584 9.16498522235935 1.063959020720876
35.83624724416119 -120.52258919540851 9.668106786931869 1.0782383893467673
35.835562579122936 -120.52147468849265 10.06527207925778 1.0828942600610694
35.83828455624266 -120.52389284913554 10.299682211000786 1.0777026793826416
35.834794117066316 -120.52031335272471 10.985287415337044 1.0628992447871217
35.835972800030454 -120.52124081002638 11.604425811216498 1.039154092240796
35.83916499001753 -120.52168959348651 12.17654375443997 1.007502616414922
35.83891035880733 -120.52120476431877 12.675002159953728 0.9692442591608665
35.83905373381474 -120.52094651179908 12.963901136020858 0.9258261586429722
35.837057514960605 -120.52415151208052 13.712299508612698 0.8787287986193527
35.83905027149735 -120.52060803894742 14.168961097362509 0.8293675415826058
35.835432928794624 -120.52046473649534 14.418741932558342 0.7790186580679493
35.83499351301805 -120.5207644931309 15.17207099125738 0.7287727785082359
35.836314193136694 -120.52413403582004 15.667144106829868 0.6795140586530312
35.835067736364316 -120.52456648029515 15.799370297597328 0.6319203001602525
35.838866497937566 -120.52421411393644 16.599174651404677 0.5864780692937122
35.83745342829351 -120.52189284499109 16.897503054518186 0.5435068508048857
35.83877531452812 -120.52337408973402 17.429711467945072 0.5031872842100399
35.8350817143102 -120.52026661374747 18.12967889277608 0.46558975158413646
35.838814678517394 -120.52422151999932 18.525571864919424 0.4307009109371436
35.84226426575884 -120.5245709230317 0.993105744899413 0.40611642278116306
35.84298685989737 -120.52178321591826 1.5148812494395802 0.43820943728403433
35.840521350608206 -120.52211950452644 1.7936124367221422 0.4730077995817609
35.83924667340275 -120.52246259329607 2.7139826210753317 0.5106014022619136
35.84271871800258 -120.52026189363852 3.1298141193106734 0.5510217388034911
35.84298563747833 -120.52337188610358 3.3772476601876216 0.5942179441379581
35.84224053910298 -120.52257145144168 4.013117558596967 0.6400287339287296
35.842168814128364 -120.52459822157833 4.370615860489095 0.6881513572789016
35.842140678029885 -120.52234820021931 4.928737207955892 0.7381099340593779
35.84204757084561 -120.52327601862419 5.7404446831329805 0.7892270163693244
35.84096307978349 -120.52048839753506 6.159489834914909 0.8406037507781041
35.840325507358834 -120.51984102548745 6.726562779063837 0.8911153841072158
35.8407615373498 -120.5198714812592 7.239515065239749 0.9394292704805746
35.84008745837676 -120.52070001906297 7.710266703493109 0.9840514573376299
35.843595305810894 -120.52485341958732 8.010392384727936 1.0234047904383141
35.84074285151033 -120.52393312222506 8.443590509532513 1.0559361226286492
35.84106568302154 -120.52447209357538 9.15955957839649 1.0802434363962086
35.84345049334527 -120.5233879360121 9.436488650615342 1.0952070176426456
35.842902743083236 -120.5236490193535 9.78503208987722 1.1001045184437719
35.842242989846675 -120.52447732131222 10.297474992331875 1.0946897845729093
35.839784577761364 -120.52287793017217 10.777548884248718 1.0792205511908268
35.842975573132286 -120.52065986196257 11.282555717823618 1.0544295547519986
35.84193710451374 -120.52458229318148 11.996615193769568 1.02144471196157
35.83993237177088 -120.5226466478412 12.329123514728497 0.9816734015487308
35.84341543082282 -120.52058377976454 13.14558650754985 0.936671042667154
35.84353311444352 -120.5241364996811 13.50209649115556 0.8880141128921119
35.842970796225885 -120.52034111547579 14.159461584423061 0.8371933786500589
35.84005863619407 -120.51982066638332 14.531826120665135 0.785536408207028
35.841734550911816 -120.51980570099917 14.92892974624818 0.7341616607160744
35.83979361930688 -120.52271112057504 15.319654400951828 0.6839611233225624
35.8409563777163 -120.52364485206897 16.202581695705668 0.63560534203055
35.83975892823567 -120.52392511900399 16.72019026854666 0.5895636736919098
35.84046602110568 -120.52405212144592 17.11795976725236 0.5461330033976269
35.84113461624252 -120.52196772292812 17.269653857347546 0.505469575648504
35.83969757643761 -120.52136674934103 18.17956616356608 0.46762010455536
35.8416344310607 -120.52141093943125 18.325538674073567 0.4325498591597404
35.84082048741702 -120.52445885240473 18.943772795482044 0.40016656321935834
35.84522699751002 -120.52001893432883 0.9399056747440275 0.40230302441646165
35.847728505662495 -120.52348019515274 1.250170276278716 0.4335069515062113
35.84387433480135 -120.51959958185155 1.7656197110402114 0.46729271769997405
35.84443238932188 -120.52016798735349 2.3254156100315546 0.5037460206418258
35.84804129874041 -120.52358945171974 2.819182018325147 0.5428984309065447
35.84414366430626 -120.52475835725672 3.4876729566270765 0.5847048089694253
35.847865648935056 -120.52039793817458 4.0986909065149035 0.6290165199854129
35.84761231925435 -120.52262950480541 4.620863052066195 0.6755513955464365
