> GMT_LATLONDEPTH
> out/cube/20240212A/PointSource/FF_4hours
35.9013242595956 -120.47079578672235 4.480484342722067 0.591969366505898
35.89972565401352 -120.47201138731549 4.773017982573134 0.7612266827741844
35.900661205518816 -120.47287290935175 5.5804590887652195 1.1640673341753618
35.900061740851584 -120.47131380804127 6.026367569700589 1.5421194506108844
35.90157421739005 -120.47208541276373 6.694483153817189 1.7653182969024352
35.90020653673744 -120.47186611689371 6.845384274675931 1.8407612793352655
35.89873925715705 -120.47311671875718 7.455209249766176 1.8251731350076936
35.90479295464157 -120.47013374198787 2.1726210107312056 2.05761014331481
35.90268432827833 -120.47242645635848 2.322798278816844 2.0466314489519237
35.90235602763867 -120.47477347118188 2.8471654088274194 1.9156786507220813
35.906396265396616 -120.47310758993002 3.2841810938753264 1.6367312763874506
35.90443723686538 -120.47401509023263 4.1222684541089745 1.2390475218852377
35.90579359588155 -120.47070672907513 4.509695917172675 0.951893913968574
35.90515218312544 -120.47176768860201 4.9934031222143425 1.1118819316078932
35.90380187989107 -120.47498459439916 5.6735704409259835 1.6100565295017786
35.90247531040439 -120.47298003189944 5.8623887865333355 2.0293833794948113
35.9039703347408 -120.47479948172645 6.610266891572122 2.210518829686993
35.90636705405753 -120.47096970596989 7.007105714228163 2.2100424086975194
35.90355818443385 -120.47362296277858 7.48214035499852 2.107072142935237
35.906137593376364 -120.47389217828949 8.00887742379576 2.001170035755315
35.905663004968886 -120.47032940334628 8.425316812797972 1.9657125162828435
35.91095384726165 -120.47128164031135 2.327572991254322 2.5084804386682302
35.90954774725073 -120.47347323756208 2.9229720747388392 2.516986537076721
35.911230493022735 -120.47497266984806 3.650962356532856 2.40080265811097
35.908634553922205 -120.4698335261294 4.20171327932298 2.162389102047191
35.90886565608505 -120.46976269108052 4.313982019516734 1.944822243269577
35.908610475843275 -120.47292127141175 5.007674887325289 1.9102686816741214
35.907191438686084 -120.47040667806093 5.4863371208530465 2.2488929352359697
35.90967108837996 -120.47415569405966 6.07653980902819 2.5280129024941753
35.90777180820127 -120.47141382854096 6.555846659140861 2.58691836300332
35.90831175507929 -120.47412308870646 7.183861065953946 2.5045680749923913
35.91050905017327 -120.4722481976046 7.303653398427458 2.333626488649461
35.9090184098196 -120.47407722503385 8.172053306522033 2.170065759854707
35.90716965956578 -120.47030281199552 8.3260021068614 2.1270330348112543
35.908356871594464 -120.47210312027075 9.226449109044786 2.102377307686782
35.91295105266522 -120.47184234224626 2.5582806183131637 2.839466698908892
35.91512991768984 -120.47014817209065 3.204279250928727 3.0268753242851423
35.91467658601539 -120.47348700769054 3.612997949708546 3.135330345401177
35.91351260053837 -120.47251281242215 4.02390851312106 3.123564634841575
35.91409094396299 -120.47342828801925 4.473199795924043 3.1005074911293855
35.91147614767515 -120.47033322477195 4.787267189731165 3.034732246067878
35.91337080215959 -120.47290958413278 5.605848139555729 3.0379836487569962
35.9113499967028 -120.47097641469595 5.90984710396704 2.9758236448674324
35.91322020136489 -120.4709230792599 6.518161995913325 2.8442250040489956
35.913893135489744 -120.47029005574637 6.896098170963318 2.6866210034534506
35.91370025571663 -120.47331929856789 7.648127806788191 2.5096213529099534
35.91375718865026 -120.4720142417185 7.795315066938592 2.3858207527436406
35.91279573314966 -120.47081314437298 8.721451454313312 2.2682975822301534
35.91157143829188 -120.47180686399317 8.751738111108462 2.193662365788328
35.91189485670038 -120.47459306810322 9.30308557553435 2.0902338223076793
35.914149956421625 -120.47092470271572 10.191302708481397 1.9772207491920413
35.920174585614994 -120.4719956965712 2.450472430137137 2.870969039357277
35.91713247167862 -120.47439026204799 3.1559871918589786 3.0747357034589005
35.91798231374034 -120.47198946370278 3.591504270123385 3.13693660177455
35.91844744981903 -120.47235672052469 3.957700919322625 3.1960436223011093
35.91669019992674 -120.4695936775696 4.390215828627414 3.288834812504835
35.9189712102484 -120.47145192475145 4.785952598273533 3.3610345660826466
35.91802581257188 -120.47380143413673 5.4857799866973105 3.274376206865144
35.915797755786926 -120.47075669692781 6.206689355121925 3.0774136339406937
35.917220049192686 -120.47434424499474 6.5932849770213116 2.8718252154274104
35.91771672583518 -120.47242142997833 6.831713285984011 2.688468443193738
35.91630237650665 -120.47192044039957 7.635409995654592 2.508799714752795
35.91809149268813 -120.47268367939098 8.091478910857123 2.3867517880025413
35.917544164883246 -120.46969116203682 8.295040422892592 2.272797188862661
35.91773630709279 -120.46977090640856 8.907098688735939 2.1955645551385885
35.91682357413395 -120.47081955452337 9.448461830220694 2.087297009631456
35.91794281600252 -120.47076618344093 9.95628388907718 1.9700527044981377
35.91895196725721 -120.4714506469435 10.404046530923392 1.8530924528605186
35.92225242110558 -120.47372316667092 2.72363596461819 2.580463978577849
35.92295588878517 -120.47366539786901 2.834323005442285 2.5196776561791268
35.92369165086253 -120.46949801864461 3.661106916759511 2.2805269600672684
35.92327989779047 -120.47305503780116 4.068634202866045 2.0538394270105234
35.92245104287953 -120.47079800579199 4.740163297672926 2.250331020696966
35.921545836874444 -120.4696100962691 5.041183810746915 2.518974709155076
35.92185558110944 -120.47194248701531 5.50088659136363 2.7116758253861803
35.922774050063815 -120.46973128281948 5.857875944875497 2.7219207814410447
35.9242504238445 -120.47172475737473 6.494708535877472 2.6338208324301706
35.92117242167618 -120.47231286985294 6.820471753910234 2.516199338038093
35.923961744234774 -120.47119686565507 7.321043614235778 2.3766473281903373
35.924760007288576 -120.47015324866277 8.147601170960888 2.282232214979917
35.922273746796186 -120.47139377840928 8.326491732996269 2.1825484759500466
35.92381773518545 -120.47496058643515 9.158124369810329 2.115936593965366
35.923027567530866 -120.47114034730531 9.350885016247112 2.0153153121657543
35.92287459111796 -120.47041222471033 9.792150565196385 1.9040513505305166
35.92784930437762 -120.47407082233781 2.6314735101121287 2.2364856763710774
35.928570008746284 -120.47212965909821 2.9985093272869694 2.015534578171093
35.928675248297615 -120.4742715811253 3.4381587848046005 1.5504809567505227
35.92487984766709 -120.47393266902438 3.7500696446995576 1.2628195109406197
35.92625294818725 -120.47363297618142 4.48694817547528 1.3079271418180793
35.928416236726534 -120.4705235383221 5.180814669599349 1.4916337414966925
35.926779979168934 -120.47032728132713 5.637112887622939 1.8338166979658506
35.92867220677801 -120.47406002794943 6.145673932456476 2.1083121940517593
35.92598695786221 -120.47416636946838 6.2755678152676095 2.184469486764901
35.92747918373727 -120.46990955469633 7.096115168994876 2.127782171511968
35.927201789696724 -120.47022587087334 7.607589320687969 1.9797122150237765
35.928533651579954 -120.47413174661894 7.8743865127613075 1.841890921006052
35.92878485897647 -120.47394839831361 8.393118740841768 1.8380852989811767
35.92791404413933 -120.47117001930854 9.139398867487117 1.857053674285105
35.92876722791988 -120.4729668435007 9.435348619460637 1.8202518815445563
35.92814608513762 -120.47127009935656 9.909763061175152 1.7479727030563479
35.932861259741415 -120.47210853075129 2.8569350984063324 1.7472044870852645
35.930859091862 -120.47422329446955 3.571550418311808 1.3375153461968037
35.93133663379272 -120.47494805521436 3.904911028512744 0.9322412483608435
35.92966191542163 -120.47197557656624 4.274764171815347 0.7545894480461945
35.93296125632041 -120.4719911470887 5.246087265558295 0.8532374385875785
35.93136636841129 -120.47180269181797 5.674387046652119 1.198232136726737
35.92930595027006 -120.47245034516054 6.077796262311328 1.5198811390286002
35.931680201189664 -120.47399179833384 6.419008163539118 1.648866034883716
35.93281536357322 -120.47401198475308 6.863386833246498 1.5921059182012487
35.93131801929114 -120.47418210882738 7.670143904476142 1.4063042616964898
35.93217059263936 -120.47352493177398 8.001801115064538 1.2555223054150757
35.93127280374214 -120.47040988994102 8.393833981413694 1.2915342276427588
35.93167635366741 -120.47371847681359 8.96400068948124 1.4141876356612713
35.931614865984876 -120.47378598395827 9.639649198742717 1.4866195795448152
35.932577616927276 -120.47071631379407 10.078625585197456 1.4880154561103311
35.93690503226638 -120.47412989371892 2.774141483842139 1.430960871694348
35.93591089220735 -120.47309545955055 3.6084297879299028 1.0684322987253863
35.93727195635333 -120.47169720966036 4.064056239887176 0.6263811135928139
35.9360051319129 -120.47350643622563 4.813221036567926 0.45271205505149714
35.93717754784348 -120.47114966613329 5.654684401144126 0.7517497901056189
35.93555673468333 -120.47496714035628 6.145690616677721 1.021571264510857
35.93463005883509 -120.4702353182548 6.527969980630841 1.1415532424213373
35.93806165575812 -120.47049836765108 7.181786533563092 1.0777797096023953
35.93555252961814 -120.4719280962017 7.35330360849209 0.8629136547202618
35.93826617069486 -120.47491274579015 8.196706432617184 0.6849017835134715
35.93778285990865 -120.47282133814909 8.564750463627268 0.7430013603849737
35.93403318511878 -120.4748357503623 8.821897377588241 0.9432866384940463
35.9365413840551 -120.47017171308228 9.430978852311842 1.1053473774907212
35.93489729192033 -120.47140936731921 9.771375433316713 1.1708406228748056
35.9414980129859 -120.47307722171847 3.2148949051313616 1.0192879173678335
35.93885800859491 -120.47019085351316 3.46983618554188 0.7060352696925782
35.940495465389944 -120.47198145245973 5.932639591661186 0.5828313182905602
35.93957912911835 -120.4729477711099 6.687057303406432 0.721170578098701
35.942367150681044 -120.47096268199732 7.137550566653989 0.7270855969303969
35.9410626462649 -120.47442982952555 7.647036865287639 0.6091721033100523
35.941071474454816 -120.47493618443588 7.896438927442422 0.4882387693177808
35.941462888130225 -120.47063256159353 8.400375786429882 0.5162874986198539
35.9415888681949 -120.47273498959343 9.148018793576307 0.6727507561326437
35.93863497788577 -120.47012466207384 9.653967417716016 0.8245174159156592
35.94022964574091 -120.46975079884557 9.821620221593335 0.8933528394851905
35.944191132198 -120.4746713218734 3.2195577327201965 0.602933925389961
35.94692940744187 -120.47282537314517 6.964989856631554 0.494422350710878
35.94694302833404 -120.47491995808234 7.657033718146801 0.5270851166263857
35.946781352244074 -120.47115186226767 8.051705852951281 0.5221954774845293
35.942943810718454 -120.47184056622001 8.464566867969241 0.5478015239719701
35.9468166858711 -120.47003390739654 9.103208750509296 0.6263085711662166
35.94658934001498 -120.47257470485155 9.465309308498794 0.7052827371681635
35.94397219284043 -120.47181707555582 10.102018917798535 0.7320757018501379
35.95171765163418 -120.4714994716531 7.541348540690701 0.4135001929124034
35.94846850505459 -120.47107059574901 7.9938726569469525 0.5066122356727869
35.948197352348735 -120.47198297625589 8.560634298088136 0.5769405192853382
35.94846945407811 -120.47232584925884 9.121301465621332 0.6365376041468794
35.94894758689575 -120.47113218331249 9.37096364238428 0.6751665940471285
35.95290970828653 -120.47165091580544 8.303034675221529 0.5024798556442656
35.95371930397356 -120.47376082435487 8.815992932277611 0.5872944656071915
35.884377490294256 -120.46939565215072 1.9055980623421225 0.7920013989580799
35.88833936562759 -120.4683816860382 2.6261739591238102 0.5530414509336627
35.89140370165204 -120.46907844638191 1.891540503021747 1.3366448326949742
35.88933115594658 -120.46433841710488 2.3467670617205307 1.238151238602992
35.89043102052336 -120.46439959511243 2.899923268211598 1.088117896319423
35.89189967962512 -120.46473744826068 3.4361633259706164 0.901352713167318
35.89043324711182 -120.4680461995582 4.008351047828963 0.7068721781745634
35.890623959945806 -120.46803363478912 4.465672371609466 0.5602605177153184
35.89309264817837 -120.46676177794623 4.941775446611718 0.5702365073212051
35.89256167844858 -120.46608936406491 5.2770377599274445 0.7957248180442255
35.891061739720406 -120.46463305726401 6.1091684695365585 1.1129574002684435
35.891868432004536 -120.46585871822168 6.318027171137182 1.3780793711929968
35.88945598526331 -120.46864870828566 7.173583503081718 1.5475920346552519
35.8945080837082 -120.46901851250726 1.9220366873872707 1.820879901160866
35.89418484036764 -120.46521590652351 2.551964425983943 1.8388157716960059
35.89513244052104 -120.46598873015098 2.996139609015745 1.8111158899559874
35.893291220065336 -120.46794342385573 3.671264304831695 1.7380760523570422
35.895496415439546 -120.46410448572644 4.017687115521689 1.6238299460036458
35.89477388346854 -120.46775177696273 4.451122213393994 1.495635009786955
35.894475396425726 -120.46854392488065 4.84636024454616 1.478084013007432
35.89519018655082 -120.46578630528187 5.412902429679662 1.6704257698684546
35.89774215859527 -120.46921654400661 6.018821976695227 1.919104900732998
35.8974003183136 -120.46470078623273 6.54395286895438 2.0703180475054204
35.89352107122938 -120.46433108241673 7.193000651198904 2.1134835537572156
35.89524183516423 -120.46939970777159 7.312431597878948 2.089145424810084
35.898456113919906 -120.46641871313408 2.583477708275669 2.3394896109365657
35.90222762926774 -120.46753993577309 3.2158861518011532 2.4048105687149146
35.90143577225979 -120.46581482943965 3.625466604463487 2.3977425827220245
35.90188719730248 -120.4650557612223 4.091777039226962 2.289443770050462
35.89972642815411 -120.46706259630174 4.568694578806544 2.144155768550961
35.90003269993296 -120.46561228727212 5.07065915165901 2.166494742153872
35.89782211222517 -120.46445575478042 5.3553350079728865 2.3815887550544654
35.89821295207647 -120.46467452358434 5.956555391367687 2.559084114364945
35.90120685092996 -120.46600332290906 6.466832293188286 2.5945084645857723
35.900335183344694 -120.46549770563384 6.847944344395396 2.5273228474134535
35.89864629653483 -120.46684303327704 7.310391973093227 2.4111329167137403
35.901929722800276 -120.46696867764958 8.159172604464626 2.293558450911005
35.901019435377776 -120.46549611339843 8.652152272735096 2.201448568469455
35.904982296162444 -120.46471968115424 2.3739318269096286 2.739175972793089
35.90442217669118 -120.46885817257231 2.9012252220815036 2.9001312452079477
35.902605594159915 -120.46731051115437 3.7393573078875773 2.966377516595154
35.90337511514973 -120.46498503297936 4.045153727740157 2.8399638272386616
35.90480663744208 -120.46851266430366 4.724183371422205 2.595995928369111
35.906226682876195 -120.46625300755501 4.974445234846226 2.591573579244707
35.90510076519102 -120.46602503597919 5.614337034997917 2.854203294578341
35.90439445625726 -120.46477592150381 6.220205130614218 2.984129606786568
35.90257002941915 -120.46462271714655 6.421802870137756 2.9278182638244354
35.90273072102697 -120.46436942436875 7.198462386915119 2.7861203390065863
35.903383413632696 -120.46399968844587 7.288981193465084 2.613974227512678
35.90354539951868 -120.46896622937096 7.82325942292028 2.457267258230527
35.90565364852369 -120.46884411889243 8.728215453952906 2.3459538883015143
35.904312646439884 -120.46529824015137 9.204548514726703 2.2531596700292167
35.90943448877194 -120.4684490222555 2.353539214101026 2.9909031488119133
35.91075902782321 -120.46449706353395 3.0865312295466345 3.2530618363224204
35.91109301326164 -120.46650284871458 3.6895939968709386 3.45661804879348
35.909466173696785 -120.46843600459906 3.9930462022301993 3.5060250499946575
35.90898459844178 -120.46841994831959 4.440523662006771 3.361670235192321
35.90782586352281 -120.46464519555879 4.832291370578601 3.3218683650844287
35.907607844210965 -120.46530412877553 5.317869846733677 3.280949029000285
35.90847227941127 -120.46516015626945 6.168897279830844 3.228434787637824
35.908408188258186 -120.46531567602781 6.339516437277654 3.0707538151874116
35.90724564320243 -120.46893248199027 6.824136824189656 2.8936501154153143
35.91042375391859 -120.46391661574522 7.610134797554209 2.720342567668503
35.91061056753751 -120.46754617275225 8.060491110786089 2.563822154615503
35.909250030426215 -120.46826023928307 8.613820037377288 2.441708382817086
35.907525593855674 -120.46865425886585 9.170633037108157 2.3234865773454767
35.909642999910425 -120.4658212309224 9.397845096659006 2.1946363244627705
35.91096127952686 -120.46541953139446 9.946107279207677 2.0630830291833315
35.91430913475032 -120.46442446110763 2.3168892745484517 2.966994485718206
35.914938906759104 -120.46749105512119 3.086898510854004 3.2058510891897893
35.91331287883612 -120.4655193001253 3.363339548017091 3.362038642043992
35.91351796425358 -120.46566906076386 3.8036562824915774 3.411359037564548
35.91250562517567 -120.46390650945553 4.3159048464541145 3.505478020385084
35.91450705849047 -120.46458428393962 4.940454581322371 3.4642220549123524
35.913700847096095 -120.46925904463765 5.360964866892511 3.391485871756719
35.9115347391977 -120.46409184144329 6.165464739965549 3.1954688627321666
35.913480454083995 -120.46912473792626 6.391897411427321 2.9844557852579845
35.91448291045098 -120.4685444207147 7.1807819923705924 2.808698586647331
35.91502247890542 -120.46760041596431 7.674779027867582 2.6575067828229155
35.91499854899567 -120.46462015507018 7.780737368359073 2.511145138433115
35.91143305619176 -120.46486288224457 8.512989419782933 2.410880622331892
35.91294841772014 -120.46509564165514 8.783974027999205 2.293244680280125
35.91424802947496 -120.46506468006044 9.5518805453682 2.161977348390461
35.91554081467866 -120.46397850752946 10.143177070227054 2.031454039419565
35.91675935461974 -120.46925605278527 2.400809832860202 2.574848375229022
35.91665236308608 -120.46558519752229 3.0547832717205385 2.509148341961027
35.92012168239141 -120.4646521413059 3.7121754056741496 2.244318574717542
35.91943209611184 -120.46706285180338 3.938523240978881 2.0754679850268327
35.91935917687371 -120.46840412989818 4.323760362677248 2.300348423715109
35.9165457323853 -120.46585208252041 5.226894452722282 2.63754478635729
35.9171340487801 -120.46568990992517 5.329383421244059 2.7733299252902373
35.92008617816747 -120.46390565080101 5.9265995660864865 2.7433952820718916
35.91731866291604 -120.46860366891062 6.550269418409802 2.6436206906308017
35.91681627172168 -120.46893278314761 7.132825781845001 2.5264933421034823
35.92018888738317 -120.46804569226384 7.326959045137303 2.374414686189847
35.91846601444296 -120.46758700581252 7.904642931528309 2.292619221191216
35.91949687411313 -120.46488238665883 8.669826414511927 2.194595115260697
35.91993897238531 -120.46791259759661 8.857266867375026 2.151934483310789
35.91648144250126 -120.46492417016019 9.48634295987518 2.0540782702145637
35.9160825717056 -120.46505564341409 10.109107865782637 1.9412505167078358
35.92230041265951 -120.46421571675614 2.4466390335643413 2.0112822442303244
35.92279331874671 -120.46451179977524 3.1138426002527293 1.5538921142206112
35.923778508025826 -120.46848749681008 3.32004025235692 0.8381275423357625
35.92162271111798 -120.46489804760078 4.174099723475013 0.430530907334795
35.92158841801243 -120.46885433391292 4.525013264956529 0.6727032389435178
35.922344782429406 -120.46638147500514 5.064769213078202 1.2532999674248477
35.92233467214293 -120.46737464516103 5.369374179920117 1.742233151026929
35.92410255067002 -120.4693150242502 5.840452062496652 2.0197137331949655
35.92412012793577 -120.46443031093062 6.293338179079667 2.1319242302169656
35.921063995556196 -120.46757954859847 7.184004844307213 2.1540842872261794
35.922425003265595 -120.46888729095754 7.683899483892525 2.131402879569279
35.92072779397031 -120.46804711732831 8.141385707292851 2.0740495609566287
35.92295259050671 -120.46795145523642 8.637375882033558 2.0331998501474935
35.92373727087088 -120.46737662084944 8.960578805826172 1.9642105050722414
35.92168614482751 -120.46897528249598 9.678863761820798 1.8797392906133898
35.9215431422383 -120.46399911646158 9.835908774761375 1.7892128441916497
35.92572419480375 -120.46577716228062 3.142879616987295 1.173139748220512
35.926486607184756 -120.46923118817806 3.5431412971494534 0.5196091571905509
35.92588262553159 -120.46441336957953 5.032169365639323 0.4125665597332601
35.92733212690591 -120.46775411969567 5.732025599967625 0.889982716978633
35.92858430756958 -120.46498522161207 5.778622488577974 1.3118722930364688
35.9279446576224 -120.46475818828982 6.557202661512278 1.5595621566272744
35.92870737570073 -120.46424545350534 6.862323178662285 1.6564050666069925
35.92812216986834 -120.46466735963722 7.497693721677152 1.6643853116032352
35.92682833354121 -120.46878659227674 7.87792082539497 1.6427110552159228
35.92555343606184 -120.46519520199337 8.408508360671046 1.6313658604762493
35.925463254288054 -120.46454505473739 9.123930226781386 1.6229256542175414
35.929071816347864 -120.46645120822878 9.509752579151408 1.5999848531397147
35.92733797704173 -120.46594439008967 10.147096463963711 1.5576687656159747
35.93304361607017 -120.46530723497465 2.8138292992575904 1.1814231325994708
35.93327349390367 -120.46597979286432 3.533784093953826 0.7351802863105509
35.931474149237545 -120.46775538015234 5.638801534221167 0.45035118974096483
35.93298693193847 -120.46454095318873 6.090354554750847 0.801847498873378
35.929800924669706 -120.46813045365863 6.5496941560198145 1.0305236339536776
35.93187428344508 -120.4682428015643 7.219277111948767 1.0960365549683306
35.93149879095086 -120.46882239856419 7.350536515380205 1.0493842335055044
35.93212655388069 -120.46429989674635 7.82437136304251 1.0031122382116089
35.932810014690034 -120.46550321639273 8.62701431606007 1.0452496846311734
35.9319257212496 -120.46658655074864 8.924864754424208 1.1422763544702983
35.93089059781874 -120.46503331601994 9.489399461146512 1.2204216919327302
35.93047831535328 -120.46839102676013 9.80993732950844 1.2513780137193515
35.93625270622601 -120.46721850548494 3.162738028192991 1.1260809665689844
35.93746358176602 -120.46907020433807 3.5201901200013332 0.7907706374772286
35.937683354288765 -120.46644283112357 3.879523317191594 0.405019536026955
35.93672387154988 -120.46944027914314 5.967926247838357 0.46368570740962267
35.934470490257674 -120.46570565760052 6.564661691159791 0.6105707473997714
35.93747647596925 -120.46515637442256 7.143023847371139 0.6231963658645017
35.93762586679314 -120.46556365312404 7.408837833398808 0.5364205542041811
35.93412214767586 -120.4655139013662 8.117154742351321 0.4724485321582005
35.93751267745049 -120.46946105908431 8.624779352260203 0.5352751862787372
35.93443087204653 -120.46870656309282 8.914608147551409 0.690546621518972
35.93786396852726 -120.46879318105944 9.312901598868429 0.8385228490932171
35.93427368141917 -120.46661731491449 10.234345336743859 0.9267649292398474
35.93866652665977 -120.46844424281494 3.237124058412327 0.9127641321030245
35.93831807721143 -120.46515719329959 3.4615469026820747 0.6418056573284909
35.9399313213058 -120.46752258533475 8.906632778020793 0.4209538182350616
35.94078524818642 -120.4647351029819 9.309356749866383 0.5679627070426339
35.93994393919735 -120.46695481150309 9.794539786783504 0.6648707126107171
35.94287571905505 -120.46485508650159 3.0398919522674945 0.6111638946887666
35.94540224607201 -120.46612223948622 9.25138811827356 0.4452934567718078
35.9474916763501 -120.46644678640668 9.4333920445502 0.4173072769339473
35.88088606217325 -120.46079509221092 2.1003945193099387 0.8665995371016519
35.883739781949245 -120.46276093899951 2.6882518415113785 0.5563195335669484
35.886213454368196 -120.46015700780796 2.658010831187704 1.3199529007041129
35.88773303929999 -120.4623871377666 2.7680216892560474 1.1042314803192574
35.887960793585926 -120.4627194790285 3.448935181405397 0.8141366866112002
35.88609827439297 -120.45960174333317 4.183087128873006 0.5106300390815675
35.886935819616326 -120.45972073406627 5.458779513561473 0.6328448966326929
35.88868086257736 -120.46130740384773 6.084980630831065 1.0281200258600351
35.88717237419568 -120.45937134849085 6.321836381509463 1.3808824104795145
35.88591759277416 -120.4636311041347 7.069787921435371 1.620703078187643
35.89109487551592 -120.46235727821572 2.4816407580112076 2.0023549679387003
35.8903038813774 -120.45876287077314 2.8805861781732647 1.9780526072425515
35.89183024065932 -120.46263837353219 3.6366390005674125 1.8785994646400088
35.89296461613126 -120.46293986099255 4.1383082681901575 1.7023807858156077
35.89149754112759 -120.45936411010652 4.423269283992511 1.5082764732221854
35.89074961127052 -120.46288920185862 5.015298276383322 1.4718823589318446
35.88888969907036 -120.46344353397653 5.26616529970132 1.7041838802067366
35.889511944820136 -120.4593202442144 5.830165632712382 2.007331084535555
35.891049995902144 -120.46159986830638 6.436161852109506 2.208262995035737
35.89190072240854 -120.4638249875074 6.980597312829606 2.2902964923369806
35.88961899542308 -120.46075861830303 7.357348233998215 2.288356214118854
35.89533954922401 -120.46319115344241 2.65308089135376 2.5377398649950393
35.895675479431745 -120.46029544921412 2.819848205383263 2.665875082920069
35.895150923422854 -120.46234639300302 3.379739395538697 2.733909701150656
35.89375730291026 -120.46160204417326 4.167833040643666 2.691592415445862
35.89582047992193 -120.45936650828172 4.484815058155791 2.4993592007272167
35.89495965373716 -120.46341844218416 5.123731289545136 2.364083871577936
35.8955779437988 -120.46198938560255 5.390374086061006 2.5575038562216026
35.893896591105694 -120.45975015545005 5.815868372776542 2.782169734493267
35.89432727992794 -120.45844042165994 6.2756662855927505 2.8407341948609792
35.896153814231134 -120.46001159617451 7.23004696757588 2.7857052332958054
35.89644517981345 -120.45934636061548 7.296037184831211 2.6764346619540365
35.89370254376587 -120.45999120528158 8.084178532651977 2.5481967014682114
35.89472093555769 -120.45840905029436 8.664267323504564 2.419189811389964
35.89807081238002 -120.46148556825513 2.2612891066471277 2.8981019521629867
35.90025478325081 -120.45855114164799 2.7888199737518415 3.1297384724099464
35.89863366509558 -120.46253694136821 3.3555586955688357 3.3225132203457135
35.90111213840917 -120.4627293022245 4.085015064152256 3.4205200262961797
35.90117539605782 -120.46236021797294 4.469887498129232 3.3475061926367777
35.89870065825737 -120.46179668075399 5.006386576896459 3.2455077109737975
35.89858861618083 -120.46383324324222 5.360994602240638 3.306397976222836
35.89835734556639 -120.46160341093226 6.091763107379151 3.326021198748979
35.90054620660623 -120.46299788499275 6.353239896550685 3.2272549415456795
35.89868676986215 -120.46171472540821 7.01428078341686 3.0719802277460984
35.90089044613839 -120.45857502105872 7.558364877908447 2.899869933873169
35.898302451602675 -120.45965804037068 7.9162633390232635 2.7297845675620165
35.9007000442821 -120.45974377664291 8.441092921517727 2.5696685226237914
35.899319961427324 -120.46073884115822 9.214247385822336 2.4181846092577164
35.89937269939831 -120.45836315448658 9.337710758892277 2.271444367617294
35.90235236902836 -120.45856109635044 2.542664099494144 3.0602681959185962
35.90339396344596 -120.46030980397326 2.9222137070076966 3.336884237059369
35.90497862525838 -120.46292043260082 3.479834687139423 3.5692263336836927
35.90323459872492 -120.46143411129975 3.9646506334095215 3.669438450863019
35.90593866009145 -120.45872732432424 4.727406609276364 3.6603233934405157
35.90558752406538 -120.46235462447174 4.805713054104165 3.6318085411774783
35.90489025411099 -120.46059298582487 5.283859356790438 3.5583455223808627
35.90244155198297 -120.45917503368992 5.914923266888176 3.4873239946010552
35.90491152555871 -120.46239534414929 6.524938178749545 3.315605424621173
35.90603966473879 -120.4626982577531 7.099151321368389 3.131022689123289
35.90603157502717 -120.46174277888258 7.350667435925428 2.956070115073257
35.90429250616974 -120.45952119386045 8.112889207979936 2.788507053558633
35.90520148758716 -120.46145427623429 8.511016109065018 2.6234374885911347
35.906379922356834 -120.46039725180508 8.889740905739131 2.4594496763722162
35.90594529940372 -120.46347457170468 9.637286251244767 2.298971287174988
35.904093158866566 -120.45836928405349 10.183265817416459 2.145245048393047
35.90798534241411 -120.46112159677628 2.558621988770055 2.968218539605428
35.90934433103578 -120.46232827825476 3.0105895784268495 3.1981482852106122
35.906778877666724 -120.45859981306009 3.3499136584668645 3.3683115859496375
35.90794946837364 -120.46154263976169 4.174621691852526 3.425258263112157
35.910047677667436 -120.46323675752106 4.620460431895004 3.370759830655157
35.90738787283059 -120.46313474046235 4.87337724257939 3.38832212470324
35.90861369713123 -120.46071723334447 5.674331546410954 3.363647627750218
35.908900689934605 -120.46047298522153 6.0217983990613435 3.2656609209389833
35.909673256507226 -120.46034877575893 6.481570113534354 3.1044964821937673
35.908854294811626 -120.46188969797132 7.209402822886097 2.9514183642642013
35.90802024347433 -120.46297958698229 7.378784080599914 2.817260787236744
35.90758136755731 -120.46145705779435 8.182576837078138 2.686421409169472
35.90818751747434 -120.46072362732252 8.68777309366139 2.545482476430817
35.90714429432777 -120.4621250218972 9.189224312093547 2.3944981431562686
35.91097249067296 -120.46172763637624 9.491193420092511 2.2422176472158104
35.90900280599743 -120.4587706430851 9.958725101203777 2.095325299359949
35.91526120644533 -120.46018568019961 2.4380311543321076 2.54947747497848
35.91294675831494 -120.46089898149587 2.8636609850730608 2.5579236224831647
35.91246771173603 -120.46152701685581 3.5592727856797284 2.4424666742904333
35.91484887169299 -120.45904124116204 3.760245763877182 2.238675701703985
35.91529831358306 -120.45995611328904 4.407986341687585 2.1397615447959546
35.913108900175274 -120.46170979215634 5.024376849410051 2.380954945257933
35.91131664433287 -120.4589918499285 5.500911225429853 2.6027221783079724
35.91383716923242 -120.46378978382982 5.756056518789749 2.6801662429121893
35.912618287034576 -120.45990518461039 6.522701342341049 2.6274221250874326
35.91222040459806 -120.46120109457091 7.041493559512482 2.528783587132372
35.91297714240192 -120.46357795971691 7.471431379534014 2.3953764416845296
35.91269288809354 -120.46191329500957 8.116327445042415 2.2707959302838465
35.91429627026659 -120.45891796172992 8.527471719000582 2.228028391192376
35.91562526181756 -120.46372397704309 8.776215461959891 2.1836926334541316
35.91288277338823 -120.46348416307295 9.346259396091076 2.0924405422331342
35.91228735427974 -120.45958006314464 9.88394700823572 1.9788297701650859
35.9199772757278 -120.46189851343091 2.896578793867108 1.4817525685024198
35.91841090379776 -120.45890807431797 3.7303105586149004 0.9470507014806293
35.917346158008414 -120.4635371668076 4.150162810835932 0.5478237921390016
35.919343099242525 -120.46119316988607 4.538837082389373 0.5659957537952662
35.91663945328739 -120.46227504977821 4.916280657540821 0.9761421562496718
35.9167832690743 -120.46202932424522 5.6131842815683815 1.5000910744434308
35.9161497292234 -120.4601722886052 6.0431972252829205 1.8496284175931919
35.91918507425211 -120.46143514454903 6.628195306454073 1.9899120523422542
35.91708034787571 -120.46288108045638 6.98464946293262 1.9885481863560086
35.919790120162055 -120.45984379269504 7.701557002090296 1.852362233622799
35.919731734103756 -120.45949030788822 8.15850475079713 1.7185469294386881
35.9187987700333 -120.46150570320083 8.295942994814135 1.8041892372746744
35.918605082402735 -120.4585284270038 8.945431046493288 1.897718844862866
35.91608962907084 -120.46317552797193 9.708199585287122 1.8803441677246164
35.91603129179306 -120.46053510450496 10.127647876430567 1.8081788943370842
35.92031899923877 -120.46146666891659 2.752087276192405 0.5099993578798493
35.9224750081449 -120.46335629477134 5.408949927049106 0.501530487654768
35.923026077336154 -120.46079728211681 6.181598034797827 1.0315310525835026
35.92229674953898 -120.46133577309222 6.413498140166994 1.3580803064003248
35.92376115419233 -120.45847429078522 6.777842749129326 1.5207006230890834
35.92121005299598 -120.46227043931883 7.676382231347977 1.5637060139674228
35.92283569179291 -120.45968303006408 7.857973840701031 1.5656849068393448
35.923411397869245 -120.46097957638165 8.269027047956818 1.6167253204163046
35.922521479376805 -120.46081562464057 9.201837979438778 1.6539735693632973
35.92176061066837 -120.46138114420849 9.530830201879857 1.63896873570217
35.920723840952995 -120.46255705601891 9.812429650680423 1.5925713278773495
35.92782863677937 -120.46096976853086 6.053477654557786 0.42160933282708474
35.92841470031508 -120.46351748591584 6.721655074837588 0.8192476161540757
35.92872255950587 -120.4622657860234 7.241946701832265 1.0689445486170863
35.92727072918255 -120.46084320282662 7.415542414544839 1.2163557478194964
35.92489447126956 -120.45836958953943 8.234099268264488 1.296240486973698
35.924843164414376 -120.46160734154249 8.724240723510079 1.3282779099157025
35.92864737573669 -120.46071155239626 8.796894801964678 1.3377691538928453
35.926476784232854 -120.46026911008062 9.601286808734901 1.3374095327323603
35.92479508039149 -120.459580699113 9.836445219415044 1.32471244347965
35.9324691991413 -120.46026812600557 6.788743380713615 0.6037747171958657
35.93276817348302 -120.46215047091314 7.411039768595531 0.7145149015366292
35.9313181366783 -120.458588703192 7.792602836217259 0.7801054241084596
35.933695857975536 -120.46312924970633 8.529388439133582 0.8410241850479654
35.93287704724415 -120.45897320284526 9.033136728283464 0.9090760684865854
35.930609235872716 -120.46011925937283 9.335286408789996 0.9714932531314557
35.93357413615927 -120.46354375368091 10.083637491205668 1.012816830813275
35.93447647637849 -120.46247693951308 3.1091314462874253 0.5228886475529959
35.93511167074952 -120.45984847233579 9.189756195842929 0.49998074265762854
35.93479642563299 -120.46309532467338 9.33703576146309 0.6166180676940156
35.87766366173411 -120.45731509013802 2.5806568630682603 0.598295081660172
35.880132146374294 -120.45621924658184 2.4275435635455596 1.3576886719591506
35.88158509592587 -120.4534794920438 3.1984580474109516 1.0271649435423111
35.88199936648882 -120.45608831545077 3.4059142073439155 0.5582552257787105
35.88082589941616 -120.45491252989603 6.010173836775732 0.8330259682817863
35.88293918513104 -120.45712582855293 6.400024971740697 1.329809004513639
35.88115166057613 -120.45723401509994 7.119322268861851 1.646979905810461
35.88590386155359 -120.4566415093123 2.556000877808913 2.082617900886917
35.88867033465191 -120.45729010935811 3.2023059671708527 2.0013352535573823
35.886773988460874 -120.45762589831506 3.686866925272519 1.8063335842441404
35.88700351055692 -120.45553298942993 4.146567766851281 1.5229959937137503
35.884844153453216 -120.45581385862441 4.741517783947813 1.2632650581145644
35.88847377038887 -120.45732798802078 4.7865716019599684 1.2387199966074018
35.88566387569419 -120.45594694700405 5.527950637057589 1.546722959578483
35.88767732023719 -120.45331453715971 6.121289362524882 1.9547158332773336
35.88763326811643 -120.4550268075057 6.391254402244288 2.242388682163103
35.88466383752102 -120.45553427493878 7.097253799440464 2.375623579311788
35.88604976886185 -120.45623873462588 7.504829100363464 2.3966756121284583
35.8859579187132 -120.45442302286273 7.9223453636469765 2.3523135922267606
35.88900322599039 -120.45720413180189 2.276539404452873 2.6454237119523833
35.89104872062092 -120.45382242495164 2.9558093408732153 2.7554028082907327
35.89299516737168 -120.45787169235172 3.2701927346405952 2.77005378205865
35.89098025687579 -120.45676590815351 4.173717068366354 2.659011488873024
35.89050342749047 -120.45811810607199 4.533837932717024 2.4881251234271735
35.8897423667142 -120.45321210370516 4.96632159976149 2.4491172580321714
35.89203914246861 -120.45625158141986 5.333696028888835 2.6598924125953993
35.89062322531744 -120.4558163889789 6.15066708648979 2.8784333570751013
35.88963337816352 -120.45789308009101 6.498853624410825 2.9648246068197275
35.89153547106855 -120.4568636031068 6.788888675989702 2.932617166811408
35.89014651340705 -120.4582895125505 7.43477143564407 2.83109812626953
35.89100223741457 -120.45422871393579 8.092665184985668 2.697264589181395
35.889786438716136 -120.45623280008165 8.575024464313842 2.552104700408466
35.894950970590216 -120.45621650024432 2.6902974558307324 2.986947229299734
35.894946603580415 -120.45739229705406 2.8102898836872523 3.2158397773164467
35.89496488253753 -120.45563179451227 3.6896596806299575 3.372768683597426
35.89474881770993 -120.4571585729557 4.051574598197092 3.378572762839361
35.89380471938664 -120.45585847744687 4.33984084647275 3.2245215640824614
35.89407072152879 -120.45713600330026 5.2039361078400175 3.2247291428688167
35.894422264815255 -120.45469873894407 5.425715405319154 3.3430392134672107
35.89545473999823 -120.45348809941152 5.854178544543534 3.462118788445487
35.89646681534848 -120.4530302882192 6.318944334338183 3.4040208421074385
35.89430359443577 -120.45578588624797 7.056033067779867 3.258132282500206
35.895830496765285 -120.45502010545276 7.691773730556614 3.079245182149237
35.89455022869629 -120.45792102894141 8.17017867243555 2.891841799601505
35.89383560686633 -120.45310361956133 8.653557312297327 2.706762139925749
35.896488732581 -120.45560797891135 8.772011085196779 2.528408716556554
35.89567097914947 -120.45503895738442 9.555349003073752 2.3583955151481013
35.89901235307915 -120.45737773419589 2.6338736534339344 3.089376892970343
35.90156363515328 -120.4542203161347 2.955994563232639 3.360847721815725
35.900290230281556 -120.45299720462205 3.6731564596862776 3.5924526607005096
35.90092552617516 -120.45617681960017 4.201630032629249 3.7261205940887825
35.89851670546977 -120.45325948098073 4.627079324071248 3.769158193020073
35.90067453382385 -120.45543594082888 4.77621254701681 3.7462142518237473
35.89933071483408 -120.45599896555404 5.663043788196617 3.7448439540610656
35.89780821017141 -120.45511386443278 5.943912864606346 3.6787658878879146
35.89800276875142 -120.45577096638146 6.550555561652135 3.51645425301681
35.90003614683683 -120.45482782352568 7.007946451519089 3.324175731448215
35.89936584017003 -120.45630373690094 7.446246286299293 3.1267413057063336
35.90072880473394 -120.45722842280814 7.872403715654524 2.9307078364066226
35.89889195593354 -120.45518546843047 8.457743449075831 2.738088765486394
35.89897889857224 -120.45588575686355 8.916120713949315 2.551097030588881
35.900128244602186 -120.45601961407141 9.705873446413007 2.3725274003512378
35.898334603547035 -120.45798245056139 9.77632146647294 2.204567514248531
35.90238554146767 -120.45624330075944 2.526685786633822 2.9398088960466966
35.90259017033074 -120.45647821337273 2.998088740676663 3.1603006115715693
35.906629901680304 -120.45364563812535 3.6674388099309914 3.332741714586817
35.90288616341326 -120.45677340643628 3.833791005816411 3.4096112956636633
35.90546664529794 -120.45757567834983 4.418557357053336 3.4176068699191284
35.905601885117164 -120.45301752882692 4.915345269594419 3.3982473448654553
35.90431409810917 -120.45620125102441 5.33684519385624 3.425252219679853
35.902722776409426 -120.45780313388806 5.937121787487906 3.39169529936419
35.90404767947948 -120.45382671477647 6.286099027653174 3.2650611265254867
35.90320456063829 -120.45729129141914 7.232906140021499 3.1128245826336802
35.90397984825373 -120.45416425639685 7.378141251269685 2.9563462781700407
35.9062844344502 -120.45647048637083 7.76489091146263 2.796366521890488
35.90560079270941 -120.45692012602557 8.430520028275856 2.6312872290991627
35.90463540538668 -120.45330083666678 8.91917556859254 2.4637167377326583
35.902331127853884 -120.45763639108355 9.321587343702028 2.2990134724241895
35.9023586522232 -120.45573435380854 9.956309787847877 2.141690842011218
35.91080618646068 -120.4539690275016 2.4689666693152446 2.5197411283381776
35.908309016136556 -120.45320282346188 2.7715151152446853 2.582553780454536
35.910340370888704 -120.4571349740993 3.485679430865991 2.56425512198416
35.907235065759394 -120.45402882418067 4.041016999213164 2.4452948082718424
35.90948570798468 -120.45756820743706 4.5626098995335616 2.320227739645768
35.910758845816204 -120.45341606694628 4.87054435568675 2.3992607798460868
35.907960121126884 -120.45362261191559 5.453041120834017 2.541397144497537
35.911104839316245 -120.45758001036488 5.7990467413328135 2.6975439239752226
35.90716296236774 -120.45519520718065 6.301759273303017 2.69464876200581
35.90709651807893 -120.45336723600941 7.175761090363071 2.6281297727837054
35.91040090657754 -120.4535850438124 7.270304879987042 2.5373287874568735
35.90909073987284 -120.4534015390624 7.921501161478107 2.439084198449819
35.90711112736869 -120.45381069235138 8.624711481100684 2.3436106002970742
35.908873276874274 -120.45500347444923 9.039666960278641 2.2429592113427184
35.910129402864776 -120.45749388005639 9.679229369819991 2.1295105271955657
35.91112271881836 -120.45780351768565 9.930767647152555 2.0077450257265657
35.91177877974759 -120.4537014918025 3.242126635280709 1.6316070301222934
35.91487172471008 -120.45353303487396 3.2893375961482474 1.3096584830810682
35.912658897116465 -120.45324940293811 3.945102827893024 0.949647830690967
35.91186841867249 -120.45516632908343 4.632735678996734 0.7731938232700122
35.91379656094284 -120.45344672541366 5.1166877974539045 1.0030741364372666
35.91280213136295 -120.45761315953628 5.654818190963781 1.4746572836107914
35.913791510643435 -120.45318569061942 6.142736724151406 1.7946665271864237
35.91490675874706 -120.45686072436514 6.384641104654414 1.9231220849269495
35.91195507170399 -120.45503822169182 6.871520285492025 1.9404565231543445
35.91438980750329 -120.45436012342087 7.650416153453054 1.8899505247597257
35.91508994056308 -120.45284560760803 8.102221596127944 1.8427838355338688
35.91453312794851 -120.4533422125488 8.670130837491977 1.8631780975988743
35.912263191682534 -120.45477246162625 9.240665969265038 1.894026902417774
35.91184087208866 -120.45441418022824 9.646326975286582 1.874965720700813
35.91300986668253 -120.45483110139836 10.122135845871524 1.812027922125375
35.9201317984904 -120.45484189222464 3.0708328705413743 0.5160775461116858
35.91759861670712 -120.4529106432169 5.898307388153933 0.850255660292358
35.91723603071689 -120.45344224412962 6.517571738549885 1.1320732107424327
35.91920342258391 -120.45278818474222 7.152505412028988 1.2536028534204484
35.919709370020975 -120.4529570407429 7.591935194843811 1.2556955148533444
35.91671428850356 -120.45799819809325 8.016594884119444 1.259095387292187
35.919852916555115 -120.45315916159542 8.502908894359901 1.38132166506667
35.91926435272492 -120.4547263540896 9.155498263595746 1.5241362478574405
35.91851925765782 -120.45678443110891 9.699798257626794 1.5862080557543958
35.918748516549115 -120.4569733271955 9.904206928024843 1.577772772580657
35.92120872402433 -120.45445996466671 6.502005342349861 0.5028579079527417
35.92345725130568 -120.4538055542439 7.074464740749581 0.7561623567996135
35.92073800513969 -120.45461256156574 7.255021838829275 0.8833500841139926
35.92271607430922 -120.45755600751241 7.940095398122351 0.9728570459046166
35.92446310952628 -120.45499935946414 8.564384189964033 1.1046726843818333
35.921393593406975 -120.45703952829251 8.8775868064601 1.2339940509791503
35.921767827250555 -120.45633485373527 9.4735702932343 1.305239153569338
35.92268530423703 -120.45401237364317 10.169727969519107 1.3232475096524916
35.928950342712746 -120.45791592973553 7.461937026446614 0.6100781355475812
35.925008887608506 -120.45821940753154 7.755469149464449 0.7538200746152768
35.92658634345024 -120.45769696683254 8.54358904246405 0.8643893902480384
35.926949353144735 -120.45678550532065 9.09771471075091 0.9516761288234364
35.9248676365201 -120.45824476218918 9.303201137444885 1.0127223352834873
35.9295737903653 -120.45534310852229 7.874999117647862 0.4145161993831365
35.929905020615436 -120.45327419612384 8.721405786003311 0.5210866667410926
35.92976831770136 -120.45426742268346 8.929340596168469 0.6130049489176469
35.93203809620169 -120.45493210081364 9.315960900812522 0.6931543352046172
35.87366525990056 -120.44941229065606 2.669325364133927 0.7879921285141521
35.871587056524916 -120.44728900981426 6.405579543649015 0.5760337146208429
35.8757224234905 -120.44980087563309 2.5479072583472737 1.4547570108868666
35.87595190007732 -120.4474549780701 2.779978550255168 1.0352428282366568
35.87777278695995 -120.44795869712644 5.763525340864826 0.8116337359951538
35.87871233088295 -120.45124659293387 6.356065588514017 1.385905288897663
35.87816549202032 -120.45109089092755 6.940189493442953 1.7079895785065924
35.88281832505577 -120.44939384403943 2.6563811294263777 2.1563854402847054
35.88043563217667 -120.45178315799004 3.042681946244437 2.018291159437435
35.8806394548718 -120.44765183205135 3.2919836765940764 1.7024297657971217
35.882254414295474 -120.44849264455216 3.9308638133045455 1.2928867302099118
35.88389067913606 -120.44839848538355 4.654467956865124 1.0136288322366793
35.88053408289652 -120.44734083545079 5.230879779802634 1.064205947337211
35.88242430440861 -120.4477987651357 5.383526846642102 1.462461810451517
35.8814776930169 -120.45101713243574 5.834535063978267 1.948498902106813
35.8824801157728 -120.45000823440292 6.351369806431625 2.286660090462046
35.88400679998869 -120.45268526060083 6.851328196900378 2.433885834041035
35.88256115288268 -120.44884442669562 7.723767076351284 2.4497756479566495
35.88399975533514 -120.45217224641506 8.150787967092121 2.3982149125601397
35.88621358031056 -120.45179824482014 2.289064674836503 2.727375081440715
35.88596202521507 -120.44902470653963 3.0435063947649197 2.839153837148525
35.885015892573904 -120.44981026166319 3.743375194981146 2.853464675147601
35.88746685902037 -120.45076755401605 3.8573174949947697 2.737188099911634
35.886565526887 -120.44844751873501 4.414723348204138 2.489109861911287
35.8872076403672 -120.44731007485555 5.059809475126946 2.3559106158417458
35.88831048963736 -120.44932572553971 5.726147926383833 2.635574214259575
35.8850092655758 -120.44978795334659 6.14731536418393 2.9447283255940744
35.88817174338954 -120.45057605426483 6.571795668918556 3.046968527623297
35.88483368702567 -120.4500893772901 6.868409883037969 3.0089286965751496
35.88715430467657 -120.45101643293279 7.659461351144131 2.9010611597252787
35.88636191589794 -120.4484297270747 8.055111048938498 2.7625203351327072
35.8851184498628 -120.4486154543335 8.42110463739958 2.6128801612748656
35.89054059382962 -120.44883049094233 2.6956050695737024 3.0521263357230297
35.89273393839431 -120.4519075214663 2.7835313487318234 3.29734411926895
35.891028222563605 -120.4526135939561 3.2581555900465915 3.4866271328972
35.890195670849316 -120.45118841019382 3.8709774316318857 3.567557240549502
35.890449065508776 -120.44834706413319 4.292646603121037 3.512899531234258
35.88997214838218 -120.4500821636394 4.830417414979947 3.491393373859688
35.890824204007494 -120.44772011048472 5.7279826796818964 3.547330901041595
35.89119355757471 -120.44974116037827 5.807139342233645 3.595646455343348
35.89195325649878 -120.45230793813688 6.415990226375922 3.506000222354311
35.889837756686006 -120.45137997191925 7.122187262381212 3.342401290388472
35.89024511749076 -120.44840408645015 7.64800736371165 3.1523319923221034
35.89274148013079 -120.45031153212376 8.006735073926464 2.9568799222973423
35.891756833920226 -120.45200297427398 8.683243780270859 2.764562268147479
35.89238383771525 -120.45055141238629 9.013313778992705 2.5788935373779163
