> GMT_LATLONDEPTH
> out/cube/20240212A/PointSource/FF_4hours
35.898823697283746 -120.49017370575172 10.712102088157694 0.9843033119322235
35.90078553817755 -120.48755068157091 11.00589493462972 0.9879833909612916
35.900174073215226 -120.4891524927163 11.386800908368238 0.9934837396777186
35.89958753876926 -120.48898807767407 11.797781661342585 0.9907857373340822
35.89931712656767 -120.4879971930334 12.586303037222741 0.9663051387619133
35.900166558077466 -120.48661786693597 12.865588185169827 0.9512512202603014
35.90076663038017 -120.48962293812113 13.724439107254438 0.9097812109273608
35.89992089180474 -120.48766291767645 14.205387654326413 0.8534829361199275
35.898024242452394 -120.4885318885703 14.318336137278033 0.7037634609950335
35.89828770411764 -120.4905764610193 14.848050551306878 0.5295141176923885
35.90340384748598 -120.49030194578586 -0.15079406486610336 1.2386338236812529
35.904157120325614 -120.49038221062547 0.6326530383627649 1.2222893989432686
35.904065669609764 -120.49005470142814 1.1222523735819765 1.2070148219819044
35.905447113218685 -120.49025074875921 1.4085855061831767 1.1476599885560432
35.90523986363266 -120.49146590136188 2.201332413096708 1.0154109330214822
35.90624291981399 -120.49151731954939 2.549925725732148 0.7845627091211572
35.90427985856604 -120.48626056568486 3.0557566237407645 0.454896443425188
35.90472199875515 -120.49023571097213 7.172589989473726 0.6383709157857542
35.902632744680254 -120.4864192703229 7.7257673064625365 0.8358180813074402
35.90421373109001 -120.48836262006805 7.972720526376766 0.9653444991829253
35.90317240893081 -120.4866670292631 8.586244718736218 1.0429735519067593
35.90281137126434 -120.4879562614002 8.903507813306321 1.0878959195916806
35.902963306420425 -120.4894709381124 9.5835468350612 1.1146046152137272
35.90375448435375 -120.4914160441982 10.079544494557931 1.1290864403399241
35.90249822835799 -120.48901012042842 10.619223464203401 1.1329516962721604
35.90618972644869 -120.4890745871278 10.900621785766836 1.1166740306741345
35.90553508926981 -120.48644526090193 11.481338006667198 1.104529548506825
35.90309918650199 -120.4901144865447 11.787765258044494 1.0865673440893828
35.904173191393085 -120.49107416594119 12.56607089316725 1.0475121780728727
35.90416519920155 -120.49020938035775 13.106733900661508 1.021209774177779
35.90435628235492 -120.48906192686464 13.624265772883037 0.9675784329257988
35.90442957006483 -120.49070127025836 14.163354137289966 0.9012970750816862
35.902350662385054 -120.48805844969814 14.338256780889573 0.74092467152275
35.904404698714636 -120.49054073712615 14.87037667071832 0.5561522524525782
35.9073832684758 -120.49168435753327 -0.0004918266247943559 1.519997677976725
35.908079979269964 -120.49120387695282 0.25812464795173734 1.5597491980106246
35.91088451293527 -120.48749421100985 1.0024782621353854 1.5849600860131052
35.9093283698665 -120.49082111798516 1.7407562034767472 1.5621106365081494
35.910497263690544 -120.48802201365442 2.14111701341899 1.4796239167407166
35.909805358871374 -120.49041460477555 2.7240421469298135 1.3113030501903753
35.91113963415054 -120.49088930150282 3.002161137369982 1.0347484739116903
35.910219366626436 -120.49075847428786 3.582539818635701 0.6541141872442275
35.910029999200326 -120.48766716997841 6.204728603946955 0.5060729594098703
35.909146750198225 -120.48850915168718 6.727043551124188 0.7883115135569563
35.91002846667108 -120.48679735188243 7.048283094455294 0.9784902297595658
35.90807493962995 -120.48738059811112 7.58005795818401 1.0830054753841147
35.91035540395099 -120.48878661156841 7.955304744845039 1.1407694409006894
35.91060127125093 -120.4916492394622 8.310678750914356 1.1870608659077901
35.90999733000531 -120.49096385331082 8.967362488669963 1.2275315481104743
35.908709415462894 -120.48754689646499 9.616686344445498 1.2537696201806623
35.90834692701216 -120.4911878186986 10.080122204717641 1.2619289107868885
35.90853956990893 -120.4903173462039 10.351828262383743 1.2538163953265218
35.909721971717246 -120.48880651187497 11.116742428459666 1.2231040512384466
35.90964811570926 -120.4903456071772 11.623796844818616 1.1968125437067871
35.91059320745749 -120.48807403633423 12.200768122474848 1.1662836893084185
35.910794146122555 -120.49072389399213 12.71360290892075 1.1148943785870173
35.911118984069205 -120.48870451851852 12.781388415292355 1.0791205251613836
35.9101627927549 -120.48625999633852 13.493661673545173 1.0147125682702933
35.90714620302491 -120.48680388521989 14.086534069171504 0.9396342049462953
35.90968493345259 -120.48757525128266 14.593062625211482 0.77044619707434
35.906973016684084 -120.48983931300266 14.959937703105762 0.5768015089029276
35.91509618253218 -120.4906666218356 0.12126668073636626 1.6863406789257358
35.911502479092796 -120.49091440420614 0.4121574353473076 1.7630061182868564
35.914345799337745 -120.48877381208854 0.9426314671196863 1.8300540608769351
35.9147966618335 -120.49097518544883 1.444671380952236 1.8587847898039465
35.914800333525974 -120.49100713300278 1.848512921674552 1.8436099748649744
35.91411669955148 -120.49075045417996 2.3342460204530293 1.7535147881925763
35.9130237967164 -120.4872427403601 3.040446715859474 1.5367212878756273
35.91234295906591 -120.49069438702735 3.633340867000786 1.1497730058852396
35.9143117782651 -120.48927266862275 4.191861587520882 0.6927511952331163
35.914398924919034 -120.48634103409644 4.658665106350415 0.44078573877908034
35.9142007652049 -120.48619927699099 5.24730989906297 0.5070665653095289
35.915441663075406 -120.48897384723469 5.4885673385659235 0.7715314466406616
35.912535487579824 -120.48947104123725 5.918934791528605 1.0494430284780971
35.91436686193676 -120.49087835546432 6.485392355802349 1.2246185524313533
35.913494700469954 -120.48640254652334 6.930441379146151 1.262195095429986
35.91462779025178 -120.49108797085512 7.7394306273764615 1.1943917302552527
35.911744635630875 -120.49170519194433 7.826440543951463 1.1360226767854686
35.91354587430269 -120.48978944491147 8.650309423070516 1.1845356631320465
35.91147231806888 -120.48730798839686 8.79198520544086 1.283217961327436
35.91175101256177 -120.49049145441106 9.365531557370803 1.3500579222474085
35.91127269490058 -120.48697894434773 9.978138475000543 1.3697573299155055
35.91300962641095 -120.4895685758123 10.397385078006483 1.3558177051987352
35.912725608244095 -120.4888180932699 10.97163532604602 1.3127814944481462
35.91274680733424 -120.4897692434193 11.557024624333657 1.2737379048249944
35.91216868458213 -120.4904769630186 12.155363347453696 1.2321527753430868
35.91246616885015 -120.4887157740692 12.680555778171986 1.1699097701090813
35.91292174995705 -120.48860075594378 13.181622829353163 1.1257972157045464
35.915229946468266 -120.4873531210567 13.477720482560352 1.0515169392176844
35.911363307652664 -120.4869900265511 14.043934014477518 0.9684451079520229
35.91317124515765 -120.49158595786635 14.530282295873905 0.792083456847691
35.91507843031938 -120.48951543258922 15.127904023865876 0.5912976044669395
35.918705748807064 -120.48916015006562 0.0884858981945057 1.7673626215480274
35.9185700477999 -120.49059598417287 0.252418743457851 1.8673037196949505
35.918029761879914 -120.488426011317 0.8219347991108376 1.9682089066843476
35.919925275323266 -120.49063872030857 1.2618867269435454 2.042841184056341
35.919549787049796 -120.49032178273777 1.923323923375215 2.0839832159608513
35.9159199669587 -120.4861517523814 2.610231011463672 2.042192357467594
35.91803633543888 -120.49031038534562 2.987097087659398 1.8088752742345517
35.916070873295816 -120.49163030585638 3.326203772290489 1.3051565379744179
35.92013773263309 -120.49157404817788 3.901946887850446 0.8089432020832257
35.9185588885555 -120.4893028512206 4.661346946620216 0.8026759978977639
35.9166422810263 -120.48964384401778 4.764207660889104 1.1007780479190326
35.91977025016711 -120.48636728820885 5.657105801781426 1.4275688857342452
35.91791916884239 -120.48778851699517 5.83992991315342 1.6397429540777735
35.91845582327537 -120.49039733850208 6.567678689177773 1.6884554460930707
35.91854984967651 -120.48999588435275 6.890204247366205 1.573681450651623
35.9181409043528 -120.48753584745046 7.452691833216617 1.3410160231516788
35.91844470113823 -120.48985411508318 7.892970090356972 1.1690013919355502
35.91908796546192 -120.48724553765916 8.589520899054495 1.2175595851877359
35.91976056531487 -120.48772815523957 8.869810396213742 1.365490324538859
35.919671308410734 -120.48931572540825 9.451362039784241 1.4602016692500217
35.91661616235216 -120.48838463464806 10.051799815684818 1.4801736527681135
35.916750913429205 -120.49083529722762 10.70844745337745 1.4525506174248757
35.91857022018143 -120.49093932183334 11.096916856955211 1.3929700607858775
35.91705964434395 -120.48685468591312 11.378541830585727 1.3397691304605024
35.919431130410885 -120.48641336011588 12.155429024788338 1.2871865270765181
35.916278428227244 -120.49114766519814 12.341224373350833 1.2144852192643774
35.919189874870064 -120.48891631404994 12.828615187784006 1.1621923183391034
35.9165784290919 -120.48713558225155 13.604872526950002 1.078276475051771
35.919321545418214 -120.48669553658405 13.898090690565763 0.9876000778584042
35.917994593026954 -120.48785293332999 14.504461051211413 0.8055317771184436
35.91979583472662 -120.48702056934303 14.971250452402826 0.599447548736914
35.92167705417543 -120.48670506501591 -0.1463885851497433 1.796049332920919
35.92361927444162 -120.4878925089643 0.5124569328878967 1.9111305331354342
35.92249344141756 -120.48993425246069 0.8362034321235382 2.0373294688003893
35.924367881491044 -120.49064940068826 1.3062237685457514 2.1491080342887083
35.92323266327961 -120.48924987918791 2.2045956687167103 2.2391178663505493
35.92191429544437 -120.4871227725143 2.70505854366125 2.2453958991083205
35.921010831114664 -120.48928340884333 2.759032714678606 2.0112601908264836
35.922354042600155 -120.49098841229171 3.298583938800039 1.4504739381375518
35.92113319347074 -120.49099974577688 4.245483004284113 1.0888883163896421
35.92290437320103 -120.48966132620083 4.279477630223914 1.201649414412685
35.922637164921895 -120.48737307930328 5.023683381103864 1.653736817993334
35.92069326760589 -120.48827193033917 5.748399114879382 2.046867675019747
35.92137158692626 -120.49166890664492 6.094285802542512 2.197581833856409
35.92067567597902 -120.48925159876073 6.275028264922209 2.1530153889234347
35.922527264109874 -120.48711658251355 6.836716137444473 1.9744163106099708
35.9246400644556 -120.49060476748927 7.515280095667037 1.7039267714908999
35.92315523801915 -120.48959794953925 8.100088720155977 1.4913688425261378
35.920979376559565 -120.48960670802626 8.586688573105365 1.4825036306061259
35.92474049774226 -120.48961383040586 9.094348325129964 1.5743093206249448
35.92304194686598 -120.4884406748197 9.428401931586425 1.62481187226685
35.924689500399495 -120.48681074371001 10.191649175860046 1.6086282206139266
35.92191147901089 -120.48621167274428 10.483785662554768 1.5509272511290564
35.92329457740633 -120.48723382742799 10.941507038812729 1.4683299565220347
35.92188595962943 -120.49074556296807 11.45904670233477 1.3988124358000666
35.922464679914846 -120.49107481373613 12.075210627838608 1.334256111177293
35.923845673263784 -120.48982558454371 12.671257075130104 1.2500947130443645
35.92163887293501 -120.48634355455638 12.965918706529813 1.1885478175907804
35.921104434639894 -120.48822134768812 13.38069103987382 1.094621701842288
35.92359813142901 -120.48619302225094 14.065786372976493 0.9965621693596451
35.920521302325504 -120.49075444564535 14.637948570891908 0.810310209812117
35.92094157197515 -120.49010944990532 14.977447624523862 0.6010163834797597
35.92672367333968 -120.48640023864151 0.02537279719325708 1.7913971583559878
35.92759324874269 -120.48710376157393 0.7379630018703018 1.9162474553934172
35.92747573040963 -120.4897469657272 0.9482263677155869 2.061281336211399
35.92747788732426 -120.48620870138865 1.507694335025575 2.205893005285715
35.929058151340485 -120.49152022889275 1.8587454036505162 2.3545707015873205
35.92501859759555 -120.4905223383242 2.666953682766786 2.473977336798499
35.92734273528236 -120.48666480115892 3.0494027502185004 2.459913293971705
35.92744891706933 -120.48839097182673 3.628036594819422 2.3358881443500525
35.92852375321583 -120.4894941751338 4.225757785303885 2.246955641541853
35.92690320377968 -120.48644642141021 4.568433708607034 2.243787393441671
35.92851632637958 -120.48770550011857 5.153565604464296 2.5118315272549765
35.92924185169179 -120.49042765888133 5.477714064745873 2.595954866984544
35.92524154236181 -120.48898183177918 6.112499215152312 2.6302342250866784
35.92692792941727 -120.49148280902213 6.481652040030313 2.5200897502905506
35.92630466098397 -120.48658850902392 6.7817388182738325 2.3433376345930315
35.9283310495548 -120.48927620707022 7.331854171690968 2.102324703567309
35.92508693758944 -120.48719612825433 7.908762756335712 1.8802850399301212
35.92545654296847 -120.48777734069071 8.361430309846051 1.819298898315784
35.92813860388965 -120.49093218771344 9.13877397672376 1.8287378161175645
35.926782380811495 -120.48626797557351 9.59493596633459 1.8030087824079017
35.92543034716 -120.48664506742412 9.798878320316504 1.7342075748198975
35.92501455482475 -120.49026850489753 10.620950798274087 1.6430594145663335
35.92887263701265 -120.48818020080128 11.150061578971016 1.538764991914
35.92918091741623 -120.48757570583659 11.522948693029196 1.4531599108914595
35.92640901377666 -120.48668513488784 11.985435750210664 1.374438900496262
35.927431609667465 -120.49118464710688 12.611387363624496 1.2758915884414341
35.92816475338719 -120.49099458413713 13.138913912231649 1.2030599439300742
35.928060315357286 -120.48670339018577 13.279976987794075 1.0988992454752888
35.92523902234425 -120.48883999700176 14.01695776772807 0.9942384734551257
35.92876759166315 -120.4889370327128 14.557002323513437 0.8058346609236379
35.92581270243736 -120.49022203282982 14.844687332415164 0.5958483180130758
35.932520132669914 -120.48746361580251 -0.12694318007103889 1.7589081302311285
35.932165623629494 -120.48920355635711 0.34593568164176064 1.8863310757568146
35.93146971244565 -120.49090154368324 0.8773701345716688 2.038883027460899
35.93210904012996 -120.4880337219655 1.5313773923158172 2.199386311884619
35.93351976968972 -120.48911773449628 1.9913626423019024 2.3821181513097227
35.93001924262404 -120.4882887555282 2.3072979947548857 2.5848787729189775
35.933052991325745 -120.48753663423987 2.9019066144980394 2.772592451692859
35.93223357172619 -120.49017989312534 3.383676086117376 2.867143621291941
35.93065125742704 -120.49053122630158 3.9758949077823798 2.9369200873555443
35.933273423293805 -120.49058485976224 4.299879800432676 2.978930705293514
35.929871541158256 -120.48814788929043 4.984453916352519 2.9660094031215136
35.932703848466055 -120.49025010931963 5.571341320303809 2.916772434513874
35.9335557544248 -120.49128686508878 6.1009752504851456 2.817643991403381
35.930644861905805 -120.48912924939904 6.551014938634532 2.6672717616472625
35.933026390607715 -120.49064147467683 7.16424980645985 2.512638930652045
35.92943915544321 -120.490134425275 7.258507038197182 2.338846259642375
35.93196075515861 -120.49139367570939 8.130028207030392 2.2019456244313442
35.930184466283066 -120.48975895286596 8.486563100879556 2.067445283163409
35.93216026032691 -120.49147062019081 8.859898092553578 2.0014288403161005
35.931634625696525 -120.49140782402999 9.643192947468878 1.9127095300190233
35.92980565585552 -120.489278423657 10.081135317373754 1.810003773064754
35.93162803573273 -120.4879981782822 10.408459599543413 1.7069122953366171
35.931248307667374 -120.4913252271711 11.196358074471151 1.595828396163514
35.92960694429156 -120.48908802234138 11.40077418049936 1.4972485095985528
35.930378715720806 -120.48889663584372 11.797545726511958 1.400639523218743
35.93140985605667 -120.4909759332238 12.56798721746349 1.284715567426802
35.93246326226999 -120.48720971645723 13.029241388928133 1.2004694792015316
35.93010370166595 -120.48693250126409 13.538814313662753 1.088176661443131
35.929651605297295 -120.48637386447255 13.943379914295745 0.9794118271264072
35.929829155486736 -120.49042889209203 14.446026268967447 0.7918338905242316
35.93239106933964 -120.48960496868627 15.02950303352593 0.5841470176946566
35.9370521686195 -120.49167075276578 0.021688679609484562 1.6962612098088667
35.93557322598385 -120.4913183019703 0.47506632110500185 1.8148760154378616
35.93643988933405 -120.48806195357614 1.008719891045726 1.9552483198071482
35.935667056339426 -120.48813713569427 1.563047068662165 2.096051699839394
35.93706552030251 -120.49142726082802 1.936186170559411 2.2430252555144228
35.937370744970664 -120.48977725999023 2.448537253702513 2.379649823824478
35.936232208421984 -120.4915714573576 3.2091365616188003 2.46667706875958
35.93532810448184 -120.49013000748397 3.6346989742208544 2.462422872827667
35.93383164120651 -120.48979705671495 4.201006127095162 2.442693107197746
35.93656020559208 -120.48703874560545 4.619856903558809 2.4041093098462243
35.936941040996935 -120.48946542587356 5.189018455349079 2.4235846432712234
35.935803135581736 -120.4871786724113 5.436297067479145 2.5115556069586984
35.93664754545774 -120.48970010237657 6.118219087917593 2.570369145978011
35.934057659823885 -120.48790000641154 6.298609048185787 2.5122135345209657
35.937880830447284 -120.4914726522625 7.130952515132916 2.402584327479689
35.93505053977261 -120.48990346077684 7.579720566539934 2.258036421928321
35.93395989515447 -120.48785842325363 7.751264740409713 2.1419991766726634
35.936986831003296 -120.48958465718727 8.639446677816524 2.0135533484731374
35.935937000991494 -120.49147395783545 8.77222444475671 1.9654610050612598
35.93484789000247 -120.48977466870409 9.484230304955618 1.878640554069263
35.93409154387801 -120.48812168348931 9.873763528386112 1.7806992969656732
35.936990896855725 -120.49107658094516 10.458982529463565 1.6879448915990718
35.9381670956873 -120.48971290961043 10.977363736878521 1.5840097946541951
35.93582525907389 -120.48700367506383 11.746291671309805 1.4842096026668843
35.93795724541212 -120.4890527394542 11.935165186220614 1.3815617759069012
35.93411819031606 -120.48922506474193 12.681820146403762 1.2598725256208734
35.93588966578618 -120.49057225506428 12.965842674093611 1.1736089614707015
35.934414554994554 -120.49145437334967 13.295817240311887 1.0602640730923838
35.93556140226698 -120.4887323011409 13.754819901090865 0.9520841288836219
35.934569149022686 -120.48955269660468 14.691096803067609 0.7690552071666718
35.93652908245707 -120.49054759710702 15.121506072654945 0.5667923029858366
35.939014983347874 -120.48969680305231 0.10459085711556959 1.6003186015494641
35.94084205013554 -120.48695476608076 0.4152838168313483 1.697283483749427
35.938903422542765 -120.48807187638928 0.9150579884004355 1.8050857454809177
35.93858816293189 -120.49113627647345 1.484573511173328 1.894149139523095
35.93842019233427 -120.48995991361717 1.9189629771356596 1.9569086164230927
35.94211423895892 -120.4907595207939 2.3459452859405663 1.9614584003593205
35.94013390812183 -120.48666774346734 3.20957452767259 1.866655128105535
35.93845718014114 -120.48997443549862 3.3534882554706416 1.6542333478470272
35.93984692984245 -120.49048856083222 4.016251526971756 1.3857654825082788
35.942189419010994 -120.48761281487741 4.707352242020213 1.1858909615870192
35.941901513531704 -120.48706106706744 4.856682174455251 1.1275212927343914
35.93979948936044 -120.48843877885992 5.5082407851793045 1.5402395262995818
35.93834051219713 -120.48765505288003 6.217919088779832 1.9463584989940514
35.9421582866482 -120.48729523366067 6.708375020100011 2.095739229779542
35.93966736478823 -120.4909130610494 7.033882055143634 2.0825034264629427
35.93982750751059 -120.4906546142571 7.513602762875666 1.9732343253210616
35.93880154277832 -120.49111682798032 8.031120983474663 1.8431239708694134
35.942025456950134 -120.4870752905674 8.505711842040757 1.7732202192293207
35.939034019692244 -120.4910633640416 8.839912196134684 1.7288566208381595
35.93923860140471 -120.48767737986579 9.710471053279244 1.7127950790785034
35.94011880752605 -120.49016812954655 10.065193036102533 1.6205318043487849
35.94139917736334 -120.48704517616427 10.467723431532455 1.4778561097469285
35.93936419427578 -120.49051138855145 10.761403466422088 1.3354445260616123
35.93892338258484 -120.48892209482828 11.260585123811651 1.2971647142486575
35.9405794727322 -120.48803287181376 12.2133564398528 1.273250327590878
35.942693049055784 -120.49148021836747 12.45797923706162 1.191375069706745
35.94257243349191 -120.4890376896496 13.132036430442904 1.1229314272314694
35.94145535262133 -120.4876736034292 13.624178509071317 1.0178965957136046
35.94135753627504 -120.4889568827263 13.867221258023925 0.9149948065773986
35.939608313633194 -120.4890214379205 14.442236368454983 0.7396897280516652
35.94017894004607 -120.49020514246166 15.243014173168218 0.5453788508272096
35.946605336733356 -120.48854404903503 -0.09003324938004831 1.471760659297299
35.94421696614955 -120.49168170527935 0.5025899370151575 1.537518532927938
35.94292510157289 -120.48759620285274 1.0204117731960054 1.60093624232493
35.94310263904786 -120.48862038000225 1.2540909758755356 1.6267356347238577
35.945989625981035 -120.48913765738504 1.9766101558854248 1.6024238436225615
35.943387019186545 -120.49135656803793 2.3423260873113425 1.4980269443154177
35.94445002831162 -120.48911709621231 2.9176214215899536 1.2871623350789738
35.94620420377646 -120.48845993449245 3.3502982622606776 0.9676804597397906
35.94534172468713 -120.49019012511475 3.8776913670970368 0.5774779544822685
35.94728698648868 -120.49140445274199 5.689486675188572 0.7675006312499811
35.943126901989864 -120.49089875189993 6.249845426575407 1.2839339079782721
35.94503390053906 -120.48692752601147 6.307312896275107 1.5523190607664792
35.94634275207688 -120.48831633556185 7.0364189218303235 1.6082710991838105
35.94715982813529 -120.48772611993031 7.29799954599101 1.5389101526259221
35.944544560713446 -120.48803298471515 8.145890559651662 1.465120048435422
35.94676911386966 -120.48805174343492 8.3124571560756 1.4944899057155325
35.94670405713407 -120.49113625558067 8.777799085169672 1.5603994154860048
35.94699677353186 -120.49017055796409 9.30024854682878 1.537993022109093
35.94280213228553 -120.48742223270807 9.790699662378957 1.4310459473697363
35.94377250048551 -120.49115517453626 10.335759118631023 1.2161638302262243
35.94285571836523 -120.48752187097374 11.109646181961985 1.015515236175591
35.944893520143204 -120.49169435112034 11.669512362161571 1.0669249887975758
35.94695008572571 -120.48714826711185 12.154120066233071 1.1490486636043211
35.94562941473524 -120.48811656161448 12.597423547241338 1.11426116386824
35.945403778698704 -120.48967356017951 12.762228959045489 1.0651975538856908
35.94604266914628 -120.49061602703051 13.666770188758521 0.9696792931699254
35.94546236966695 -120.48675632140045 14.039501433100131 0.8729946428760795
35.94639518981673 -120.48651620250823 14.580149469462052 0.7066640001719555
35.944694749493436 -120.48961818622954 15.067157726832495 0.5217006672210632
35.94998149776384 -120.49074498854011 0.041070688887219486 1.31554542468602
35.95115808945115 -120.48875270140113 0.3792063058482691 1.3462736916697864
35.9502193076802 -120.48942671035586 1.1458243013357439 1.3641055416942858
35.951522381980716 -120.487053406612 1.4405592371457105 1.332662210300573
35.94911279050031 -120.48816678057598 2.2384355260728426 1.2420412001356382
35.9512025004902 -120.48658922734786 2.2632222840848297 1.0719352537493534
35.948302283818016 -120.4887848548166 3.144021562460681 0.812465103232814
35.95105786709479 -120.49136897934764 3.569818138061573 0.4773743641599901
35.95067546822862 -120.48818972375689 6.046332283849369 0.7551355552663386
35.94800094689283 -120.48858708550452 6.308437066684163 1.011670125954034
35.949240160619276 -120.49060012763668 7.148332620276577 1.082405589790663
35.95119125224607 -120.49133953770334 7.350133935560404 1.06173697999089
35.95131601258274 -120.48702673263668 8.01883303800258 1.0666232881656166
35.9516311797906 -120.48830005241228 8.466384917829062 1.160538967082017
35.95032228120607 -120.48724185650758 9.050555028468901 1.2766713183919756
35.95052237679484 -120.48932086196223 9.62386680786648 1.3361292794819073
35.950691784788766 -120.48938534625019 10.199035396137788 1.3252594891432279
35.94879617574289 -120.48641025906808 10.507975649288882 1.2486448379210884
35.94886972260469 -120.48826678681444 10.955582583266022 1.1553047645959291
35.949236486083784 -120.4868950121625 11.58848503355679 1.142542880250175
35.95161146847609 -120.486496229846 11.938453157270187 1.1352212771198138
35.94749557571563 -120.49038819516402 12.5007872865266 1.0691232996840199
35.94985746071908 -120.48803680862686 13.214280390590108 1.0151557805972409
35.94860419037303 -120.49137297531064 13.422732727893319 0.9219955928882947
35.94850384526087 -120.48689164750783 13.781651514167892 0.8293896204016438
35.95001036898547 -120.48802393463893 14.68226242614839 0.6719068041686044
35.950564856819994 -120.4900110361412 15.1034712557898 0.4968939568219577
35.95417956540788 -120.49100395623019 -0.17299502936080624 1.1386740422452635
35.95493274623734 -120.48838646608372 0.4888672410744246 1.1355998211428842
35.952996860112854 -120.48855684499466 0.810764753498241 1.1137773639246467
35.952368117247985 -120.48633285825485 1.2768794143569147 1.0389956332506913
35.95185905974107 -120.4867542296737 1.9890108081769613 0.9069181215021643
35.95262206349948 -120.48659182414634 2.585715275670076 0.7070036698864212
35.95461892722025 -120.48845842900589 3.133714124430402 0.44220794528156976
35.954050730851115 -120.49024193427184 6.384736856836768 0.5502716285655209
35.95450835115675 -120.48847688154486 7.101380990067642 0.6147077624104553
35.953335054181686 -120.49130449933554 7.384432788477936 0.6311990447948739
35.95386868119425 -120.4875226392869 7.890944193500873 0.6805462858054601
35.95203225250277 -120.48940647220203 8.319010350679097 0.8028453625010379
35.95563128230305 -120.48631247627557 9.136033271961175 0.9678381733211899
35.95533799004062 -120.48729001604804 9.607486135288735 1.1089931789832688
35.95543592611709 -120.49164671484962 10.230219339672374 1.1979599113510067
35.95297769037799 -120.4881721672245 10.339110052749671 1.2425391226637355
35.954660520269975 -120.48752512047261 10.954311457393871 1.2348184288518331
35.95202984618957 -120.48681596365225 11.438684318197376 1.1877149059263452
35.95627768421814 -120.4899597293189 12.074350691873715 1.1173961098360727
35.952065403436315 -120.4867079478499 12.593696988216085 1.0234601564401575
35.9561329770208 -120.48651506575813 12.907562441111756 0.9631293782374077
35.952605645260114 -120.49139093460141 13.36589013963898 0.8717817041042542
35.95344003717483 -120.48728793752214 13.917729085492995 0.783305935396911
35.95630220774324 -120.48806041910657 14.297548983611902 0.6352742884583896
35.954283848079854 -120.49137902649521 15.15958404493308 0.47096412052231634
35.96021830187295 -120.48662729494211 0.014659659178134055 0.9477415544186146
35.95906961780305 -120.491516957105 0.5702253176177563 0.9148960137186724
35.95850103076665 -120.4880194506094 1.0086851622145625 0.8620051922898199
35.959117640267145 -120.49057622062628 1.4668559307658113 0.7585474144078438
35.960260512815076 -120.48906532247948 1.932965741511779 0.605917389060746
35.957500613220105 -120.48925815302523 2.5591958265318997 0.40068638475086976
35.95813573279851 -120.48990315469234 7.96652884253263 0.42426322913966286
35.95798461887248 -120.48881753275285 8.737768577352965 0.5667595613608811
35.95818575851989 -120.48960666628699 9.102334225591749 0.7361947376984461
35.96038490906833 -120.48962806029363 9.712108064111172 0.8907780453924841
35.95673057209231 -120.48957688945258 9.983199112057719 1.003295848371498
35.95710860603782 -120.48800084448166 10.61306798052609 1.069311497296709
35.95752360081639 -120.48766071378107 10.871510891847626 1.0827184166120556
35.9589902661805 -120.49145375756436 11.351706822662596 1.0621231722511628
35.960480258841244 -120.4871484800984 11.981847177983962 1.0174219197250889
35.95726599719596 -120.4912148336851 12.547146660071602 0.9422387392626557
35.958881313669515 -120.49148293848847 13.173267489163244 0.894149120747707
35.959244909408724 -120.48976635204838 13.255634029948952 0.8124644429125296
35.96029782367744 -120.4885069485792 14.197108614817216 0.7318003512108647
35.9564003342211 -120.4883410213126 14.273311146615589 0.5953911373378094
35.95799415388179 -120.48987711766324 15.034741575216426 0.44316323372204497
35.96299073473893 -120.49018164509688 -0.12779883547660864 0.7477037118383971
35.96324338001883 -120.48801435197667 0.3959979537382037 0.6896708065212749
35.964120959603754 -120.48990373243235 0.8583489252197971 0.6136487266262982
35.96347598894225 -120.49160907841788 1.5909035199772856 0.4932389054196267
35.96286652178163 -120.48940130092743 8.548630293007921 0.41053418881855364
35.96422848121624 -120.48985340167233 8.859394377625742 0.5629023650079795
35.96426261445425 -120.49029908273926 9.641001579917415 0.6984850440484927
35.96274384473258 -120.49007794282352 10.151177869762693 0.7999853751345031
35.963804608777416 -120.48846131286324 10.502046646411255 0.8629693937552376
35.962943065818926 -120.48809534336519 10.833524067010227 0.886750841006453
35.96189828745751 -120.48691145069522 11.594758326392084 0.892276113187379
35.96263900432729 -120.48998064971231 12.043986440469979 0.8809904526126536
35.96185689350403 -120.4882682578282 12.472423928399479 0.8355901047910055
35.96088957335799 -120.48626682271605 13.014494257786074 0.8085280074999016
35.96271825028605 -120.4905953137734 13.326596362627583 0.7425718440143041
35.961190836875204 -120.48965333941011 13.846769271615754 0.673595544251141
35.96172846384559 -120.4875509636741 14.50954179380489 0.5513627003338336
35.96422528879407 -120.48677025910573 14.918657454355996 0.412828514052833
35.967761168533656 -120.48997749591766 -0.009691476027770596 0.5420672132108885
35.96596067790229 -120.48660565714432 0.5998991819916338 0.4625148888907522
35.96879448025033 -120.4880741857979 9.2157241891667 0.4171906319601695
35.966008139776214 -120.48879359580422 9.311678460951335 0.5324066149674731
35.96976815330288 -120.49106626692623 9.87740145443349 0.6204706259943111
35.96976156541788 -120.48939310352428 10.47837125671677 0.6806695941425288
35.96917462909781 -120.48974344203477 11.028134986888928 0.7131837351550755
35.966698800790255 -120.48789331135058 11.548151192431156 0.7354141532138629
35.9660201840138 -120.48639756321647 12.158541372969042 0.745790607546844
35.96574200003057 -120.49006140018666 12.375510762380129 0.7233132697218746
35.96858432154395 -120.48900410223105 12.969263680775653 0.7152329703982168
35.968203447541335 -120.49145716656614 13.439346262487684 0.6657392191322333
35.96932633085304 -120.48757108167648 14.184286313147487 0.6100737226598549
35.96623703236033 -120.49117642239818 14.672106298157537 0.5036076358720818
35.97398203871883 -120.48805530943005 10.17163580266906 0.4668685351023269
35.972784768981874 -120.48947616019406 10.276555200574434 0.5269954487201176
35.971865027257195 -120.48687585437412 10.836842569727727 0.5667441313074075
35.97098329545766 -120.49074034966029 11.492413486552744 0.5995212998275303
35.97048356478558 -120.48961179559699 12.001614243755904 0.6229838189542467
35.97122476631591 -120.48632310042078 12.480346549804933 0.6159334612682407
35.97024857392535 -120.49018637021011 13.154740912389299 0.6219275299734558
35.974084421717166 -120.48960027372955 13.312653667733954 0.5866714129696601
35.973631625824176 -120.48946248243497 14.108728281910379 0.5439127002346656
35.97404057952727 -120.48890609171482 14.455834783685505 0.453517064547179
35.97576195866812 -120.48855186644548 10.799186678352479 0.4413937071213665
35.97772592588256 -120.4881999506727 11.707333527682083 0.48130509661770715
35.97490662270413 -120.48726286963293 12.087784723028312 0.5131773801675833
35.9759558791052 -120.48697292653983 12.573367106174858 0.5166999287525168
35.97751122639878 -120.48617357422032 13.0427082371018 0.5326411667635683
35.97786092624953 -120.49116411715636 13.680941412372821 0.5088154334048879
35.974951962323814 -120.48845510101425 14.23098358984181 0.4776493882998428
35.978482766174835 -120.49135868288666 14.368319448862776 0.4027279837824974
35.98242298666602 -120.49089661749247 11.946650735130223 0.4146582562708396
35.97964136989403 -120.48725840275827 12.521170174291564 0.4258532247567315
35.98072456818624 -120.4880967707517 13.195514630890765 0.4489270021005569
35.980883563050284 -120.48618772959092 13.437243407373623 0.43409628813135587
35.98272706426055 -120.48793894062021 13.937736852010683 0.4130840814565405
35.86901107235678 -120.48528994544144 13.820524474393995 0.42704372178891997
35.870990602697816 -120.48365565573073 12.866447006925664 0.45634279043659953
35.871160977913036 -120.4832873646755 13.269739036898576 0.495701199772192
35.87341558478331 -120.4825858330465 14.22137317334025 0.5097069187229136
35.87144610932519 -120.48371936493743 14.423190208051249 0.43727866487335704
35.87941563358328 -120.48114981597041 11.827842711497281 0.462832455216465
35.87786716679043 -120.48088604631315 12.534575182712697 0.5219675300813059
35.876870419936914 -120.48393127809736 12.831037159400223 0.5722439115347556
35.87925492440314 -120.48587419249226 13.59884565011527 0.594239416531397
35.87923338616526 -120.48611649578835 14.004121730338987 0.592688036396377
35.878950442526005 -120.48526293992501 14.387452318209554 0.5027165702791816
35.88233768841498 -120.48131677392988 10.985497147140375 0.4662025527969664
35.884048394791215 -120.48444915194918 11.611659324960034 0.5533962608619354
35.88397029502926 -120.48395981886955 11.772966746605395 0.6187869571663965
35.883713491425745 -120.48602746626388 12.677348395658692 0.6550381156321067
35.88154633938235 -120.48223510325712 13.211188963163007 0.6866743790032829
35.882530586444965 -120.48125203369729 13.64688314230084 0.6906944018576866
35.88361104383736 -120.48165414918252 14.12737496885166 0.6734167760740242
35.88105889243687 -120.4852265897988 14.282201518354217 0.5659006177762216
35.88370207720956 -120.48141639689295 15.191534897392552 0.428750218571843
35.88708988074613 -120.48110479819438 9.87392987626315 0.49814852556749917
35.88730776728689 -120.48200233378147 10.676742983220667 0.6025413810824171
35.88668091597339 -120.48412834401175 10.913284668389286 0.6705465515227934
35.88532679567845 -120.48124459743535 11.612445251544635 0.7290438770686706
35.88536151641112 -120.4812765091374 12.02908322431999 0.7693452930894541
35.886970655678006 -120.48342598873754 12.669496079326024 0.7826071031491565
35.888183201818606 -120.48417332318432 13.219715628442371 0.7957602741186935
35.888557045914006 -120.4849346468154 13.290078381831751 0.7819820993483688
35.88581613154849 -120.4843347817447 13.926593342708982 0.7494432753095995
35.888075642469545 -120.48477398653718 14.63658318640719 0.6250772118515113
35.88663521162674 -120.48433118364412 15.125521917552451 0.4734895468287103
35.890877832572684 -120.48308414014373 -0.1274243173991279 0.5527825635487927
35.88916363453918 -120.48440625698315 9.135228398785049 0.5428800119011472
35.89195542900648 -120.48126806946044 9.482678395596661 0.6644984029537838
35.890906318063905 -120.48338511538766 9.935836607943925 0.7578571548559495
35.89193614445878 -120.48571306450198 10.473262658375203 0.8263621682892118
35.88887042549307 -120.48485419446753 10.825533930175514 0.8624940047393959
35.88996196925734 -120.48355605097359 11.285946291427878 0.8930146756592009
35.89064489751466 -120.48574003743254 11.894453336976193 0.9091728195851618
35.88927671901086 -120.48168212992125 12.37866239742271 0.9004363023877537
35.89277212951582 -120.4859573379173 13.123004414306081 0.8961308966354393
35.89173132309929 -120.48267010586672 13.49292037728634 0.8654281437378492
35.89109889351685 -120.48377198902574 13.979107711038424 0.8186335111969284
35.89006074194777 -120.48169478819092 14.509913417602755 0.6787229727326933
35.88939095560681 -120.48244126964309 15.186894874489559 0.5134520329323983
35.89338612771895 -120.4843002210818 -0.09495931874674923 0.7566738393343881
35.89653380876621 -120.48482869862639 0.4695065662172556 0.6436955956531628
35.89596469381018 -120.48277070722882 0.919503890225523 0.5499154134423831
35.89359097256692 -120.48339087823179 1.5074315751293634 0.4223107304776466
35.895362806669546 -120.4857975203963 7.357247890647466 0.43244857416005167
35.89588785140893 -120.48477900249057 8.071734550108857 0.6170080306082221
35.89416356185976 -120.48447036651889 8.374629814981068 0.7570274489738221
35.894615730429294 -120.48382041385523 9.05567007605057 0.8633273161856302
35.89696698973458 -120.48300120642848 9.627714892159897 0.9416411381681151
35.89440819834737 -120.48253463343544 10.004816886709898 0.9958247334845067
35.894606181437915 -120.48335561085372 10.443845419364258 1.0296168726487602
35.89447589940352 -120.48073308783393 11.057320403798917 1.0355823981511507
35.89627802679263 -120.48502718575858 11.366392207169174 1.040122158871183
35.894868304417045 -120.48598044557312 12.148595566249687 1.03415479671511
35.893446214720896 -120.48238290740416 12.272679618218158 1.0052823390877859
35.89357150207386 -120.48576533546523 12.910534147072095 0.98520520300342
35.89378721882056 -120.48585105445432 13.697853801120216 0.9389760442391004
35.8933389872244 -120.48510115656197 13.92018078011137 0.879315455257726
35.89526839924894 -120.4845922181488 14.37006347698563 0.7256298594594927
35.89676450426272 -120.48236439581457 14.923237189512829 0.5478791757065563
35.89785357117896 -120.48509306020814 -0.2294678933519635 1.0397033536245777
35.89967722649682 -120.48255187547775 0.6618186104915251 0.9844405145798693
35.901138702763724 -120.4859184031867 1.0275302135178446 0.942821325498665
35.89831511740803 -120.48098290651893 1.737857232706847 0.8592290045105297
35.901340671097316 -120.4839647434178 2.0897375503465674 0.6875401277071752
35.89987691450029 -120.48353355903863 6.822663290417684 0.6546737455896654
35.899658675180994 -120.48145994941731 7.620171674582026 0.8674559882946942
35.90066193807181 -120.48507632056474 7.792596051345928 1.0074182699300276
35.897887180489796 -120.48446199313399 8.656625164923089 1.0978500327046616
35.900035855052 -120.48453333077096 9.22280297450286 1.1552512901313519
35.89824591641483 -120.48397651298431 9.518566255713077 1.1892164408207353
35.89796232596635 -120.48588493693805 9.762467970171343 1.2051794402720244
35.90188761379419 -120.48089214237675 10.437515522423338 1.2066759233395232
35.90077297237544 -120.48285906840842 11.225484233745556 1.1854543972925242
35.90045923044562 -120.486144309187 11.29158939634872 1.1670446733984527
35.89830531281833 -120.48491977912329 11.873951085229681 1.1417325651108265
35.900064891450505 -120.4812650882204 12.705616525718105 1.095147964195827
35.899841637459645 -120.48423841419388 12.754675670364147 1.0613657398602456
35.89965861793841 -120.48244784711444 13.530100036413984 1.0013011716636413
35.89812577016951 -120.48405342157177 13.780380449826291 0.9303506320235533
35.90210600529559 -120.48363566910403 14.688326813231454 0.7649373612285201
35.89997920166911 -120.48086609787907 14.769040863077192 0.5762516178672626
35.90673628483237 -120.48151547761782 0.012109944995977007 1.35081279485936
35.90490411213685 -120.4821920865555 0.4046697095412084 1.3570971640611833
35.905831181310084 -120.48233323868297 1.1591786880655983 1.362775359754148
35.9066584602973 -120.483322878922 1.5400774336114962 1.3168484370209173
35.90274366535369 -120.48434481239215 1.7924458623427533 1.1793803464715578
35.90325106361156 -120.48069205957475 2.466739564477294 0.9037349722216061
35.90666580249806 -120.48245081379552 2.7929068825237815 0.4776302562350964
35.90558360346066 -120.48195004085126 6.003772542032725 0.4022336001296187
35.904338225619874 -120.48504153132873 6.3079293090102535 0.8088895828766559
35.903168481703474 -120.48578518475715 6.855709227298319 1.0952704669689184
35.90596252921067 -120.4811951769621 7.6923621388717 1.273290814221966
35.90459333201086 -120.485947425586 7.844382019239227 1.3688055000275101
35.903807354775246 -120.4840359852474 8.506639698978358 1.4054450075881093
35.904876152427136 -120.48534854151262 8.849825304318921 1.40915446216478
35.905277388449775 -120.48448877417627 9.626226796554194 1.398687335723447
35.904559240998445 -120.48555104079531 10.061678295089074 1.3801812545634007
35.9027029421097 -120.4854568757784 10.492574058176858 1.3542247907428668
35.90630973876038 -120.4831869640904 10.916577637793608 1.3102502197423882
35.90410837446422 -120.48532903094613 11.709416066834248 1.2726463082653545
35.90418832554765 -120.48505183256637 11.943642884497955 1.2310966665918215
35.90488835639419 -120.48476691044807 12.700851731597513 1.1693755192190014
35.905102249505525 -120.4808001500222 12.869864185577002 1.123987000367149
35.90266979900658 -120.48258609434559 13.683282715406884 1.0518020735861575
35.9029350860037 -120.48507030404957 13.76668236946952 0.9711109673100801
35.90336193384724 -120.48376035665677 14.66842524044807 0.79610150785258
35.906565163101746 -120.48469518614243 15.180925978269617 0.5982516224067241
35.907426351824355 -120.48340249843689 0.07877985044809505 1.6096267964305004
35.908782547502945 -120.48385322566 0.5213637791569758 1.6688942598903
35.9081756040259 -120.48098161728498 1.0845751500459602 1.7221238098912752
35.91034580542389 -120.48119117915462 1.5279589452821403 1.7261438065871573
35.91012842487723 -120.48384161196152 1.9831887758396785 1.6509455137050968
35.90865050610745 -120.48529391159704 2.4352477646730617 1.442652817233257
35.91117368311524 -120.48328867687827 2.9095438190800538 1.0593493801009999
35.90806841767342 -120.4808812470261 3.5349518783858174 0.5404742377827206
35.909734281287356 -120.48084507704137 5.671137372166015 0.4813654295848963
35.910691805380935 -120.48414655706492 5.863655689367787 0.9354144562602869
35.9082119407279 -120.483200186834 6.436230433906517 1.2821247304604761
35.907627351933925 -120.48154739259682 7.0024218434890315 1.4943721384799225
35.907220529693916 -120.48408227371972 7.557347643545434 1.6053160403491373
35.908928383620704 -120.48118817871149 8.060864246429265 1.6446125340012552
35.910477124085105 -120.4815708159811 8.457556329730316 1.6310622627277787
35.90786761488658 -120.48607493581856 9.039437233974056 1.5953177793127011
35.90929653931725 -120.48268100526319 9.384756871067376 1.5573400448898302
35.90953084839949 -120.48538935494327 9.968417353314114 1.5175596843167858
35.91045053165941 -120.48457770004624 10.719669656069676 1.4726845444190066
35.9105032594254 -120.4855802236744 11.006475049205472 1.4113095558115407
35.91080148160505 -120.48484610803601 11.37356537823384 1.3581762817545247
35.90969337230892 -120.4832574584324 12.233334514988726 1.3031478584250442
35.90756148853738 -120.48408798013295 12.564896455611873 1.228512366232483
35.91098787135586 -120.48064046812084 13.07834704851267 1.1732705404088208
35.90848717464743 -120.4857738454495 13.392585232670246 1.090440130854689
35.909632958173205 -120.48360039151588 14.028017690975842 1.0013474080698155
35.90996371065825 -120.48247180538831 14.4919202344463 0.8187992425086418
35.90765718299502 -120.48537808291108 15.005797753793026 0.6136917768549371
35.91466048462532 -120.48486458202134 0.04077721104142806 1.7757985815470647
35.91399163131866 -120.4810471564118 0.28020344765360117 1.8728601623834644
35.91297526807589 -120.48477545769774 1.0644714251263667 1.9695654118728354
35.91199402828889 -120.48443359492974 1.4773255105155079 2.0320050950673654
35.91250535482055 -120.48461532207442 1.785554378092945 2.04393726981202
35.91359860998168 -120.48378520387031 2.6597063058500585 1.9560080757685427
35.914512689916265 -120.48407843134035 2.853673816982604 1.701955940159162
35.91214995274896 -120.48061213333925 3.5392431970713467 1.2598265898609349
35.91195386903214 -120.482602782301 3.773114200287043 0.7679945729732398
35.914514371674166 -120.4843740707535 4.519990356780919 0.5860591926498396
35.91570715479127 -120.48245721009802 5.206431828007134 0.8232301074365049
35.91477234418171 -120.48462749278684 5.313388438705236 1.2262150587467051
35.91543247453128 -120.48187879634865 5.992048969399734 1.5646830450830354
35.91295812380538 -120.48261345340755 6.41327913036161 1.7585098248081914
35.913102954296264 -120.48129481298557 7.061114763816716 1.807146565911266
35.91322732589173 -120.48144530812492 7.581339241501085 1.7429025166717904
35.91176430682004 -120.48147642122156 7.981459308665553 1.6595432333885702
35.91374551758085 -120.485902551522 8.678081332784288 1.6608714562301734
35.91228143017551 -120.48161301739549 9.06723153753941 1.6802238932500153
35.91276812883167 -120.48465958220878 9.634661020486705 1.6652071332712215
35.91324862058478 -120.4833846697634 10.033339739819473 1.624474928829262
35.913719235052824 -120.48487126259134 10.636757778811763 1.568570410110985
35.913839163196926 -120.48559057804769 10.787653563700742 1.4933328319451373
35.915390185180286 -120.48230416695691 11.72911163370084 1.4268280364046257
35.91283372177384 -120.48482615321626 12.16916722446611 1.3599743228825003
35.91171225825817 -120.48429484248518 12.324240395769019 1.2738258869063686
35.9127335012433 -120.48110740589117 12.945940217273037 1.2098255661267208
35.91170984331144 -120.48380320506519 13.630631021971762 1.1174038026742692
35.91576470754287 -120.48346907928043 14.064931969284416 1.0209519849563966
35.91166634097801 -120.48130306914948 14.55912862928254 0.8327833811226069
35.91540802261771 -120.48309165742302 14.96804474004447 0.6224294079702216
35.917861876216655 -120.48381654330986 -0.20687781310483316 1.8537089595118268
35.915879353692524 -120.4807091909679 0.435345241966018 1.9729236246187414
35.91674727535619 -120.48132855846379 1.0158104038760665 2.1011024538312246
35.91678796415651 -120.48157998850553 1.6530610368254002 2.212246153327059
35.91577385045431 -120.48114056784293 1.8177225865578006 2.3039264745728554
35.9200213265529 -120.48279784423286 2.6171122680792043 2.338524204190449
35.91990938353357 -120.48437547778695 3.1826623519667754 2.2261492193809236
35.92011513481144 -120.48436206163382 3.637397404111929 1.8979035883082809
35.91587303176965 -120.48563969682877 3.9273243457123916 1.7169664601795938
35.91931559490166 -120.48349618619685 4.593820269170294 1.6415878198897285
35.91918063865599 -120.48321016273559 4.906162358163577 1.827107008559565
35.9180190784582 -120.48566658365368 5.321981833400421 2.047657270488693
35.91800172374529 -120.48339774315038 5.858809713579094 2.1960500533018377
35.916808106289444 -120.48340430274548 6.641960212902314 2.2053158672526103
35.917830004125506 -120.48288871716208 7.238062062547021 2.0819098365902207
35.91894507663916 -120.4814960099937 7.353203803831259 1.8222042989934155
35.920208313682515 -120.4859150618803 7.851254609468553 1.5969085870178181
35.91710184153724 -120.48611439802823 8.74132050667237 1.6497679400194456
35.91744366386189 -120.48162555856428 9.22255431647573 1.755677452745503
35.916036160493746 -120.48561063760638 9.657896535371227 1.7669935744430352
35.915966823002776 -120.48068564507233 9.995281983104928 1.7216064746403719
35.918648179196 -120.48364770383016 10.636267406582766 1.6518411644496616
35.918401148046115 -120.48397079838935 10.833268414919077 1.5617400935078503
35.91799777197872 -120.48530774675433 11.578885457200721 1.4819038673885936
35.91986051820454 -120.48402974714034 12.230956503035868 1.4035709990416703
35.91866286836664 -120.48374145137431 12.424885134669147 1.3063385526019586
35.91638990699632 -120.4829376597829 12.87088007999261 1.2339406102712638
35.91980233227758 -120.48491199138485 13.379940595426941 1.1326016672879056
