> GMT_LATLONDEPTH
> out/cube/20240212A/PointSource/FF_4hours
35.863771875409306 -120.42839955445768 1.3010778213222696 0.1568364711031467
35.86271920048247 -120.42861403779978 1.9461838073942883 0.25109609638168406
35.863112639915265 -120.4293756839781 2.56944006696014 0.25868548857477064
35.864917077293164 -120.42625889946146 3.024286384160625 0.06727690921333289
35.86283883189532 -120.42916506592964 6.236893153974323 0.32255244962208623
35.864017231670275 -120.42568549537134 6.268167787310732 0.6172728263790399
35.86517581298395 -120.42706726360815 6.926100656087387 0.7181102690480066
35.86509263017929 -120.42615419044199 7.656767071661943 0.6860980083922765
35.86298200467217 -120.4261480202571 8.236450457438771 0.5386119514843956
35.865901695638925 -120.42570896418783 8.53986915492768 0.39474307073878984
35.863142564669424 -120.4277714672648 8.865358700053465 0.30632471077071255
35.86466399114833 -120.42731915858349 9.395777054126267 0.21586074961350832
35.86234549866453 -120.4265051210653 9.835183300359088 0.09121709916442738
35.86848650237523 -120.4302386049956 0.8792533283843278 0.16716211882548374
35.86913077035507 -120.42526275931446 1.38034403351259 0.3506859467185251
35.8680147417064 -120.42861640067756 2.0407791576125063 0.5404167527090944
35.8670704980908 -120.4273677827897 2.2546592390436024 0.7160666669070906
35.8682334663199 -120.425856930969 3.153107282592669 0.8228094593644769
35.86916919778145 -120.42712719961706 3.638944195973306 0.7409635578536613
35.86670759440767 -120.42687350918966 4.197391710965507 0.4586737473192137
35.86766629819276 -120.42685852684035 4.599326667530551 0.3756545223681237
35.86847047833688 -120.42747523438341 4.900863981682627 0.6582118630434953
35.868595467069504 -120.42779217207735 5.5849560539283205 1.0005641689883187
35.86872329496611 -120.42996861983558 6.129525661239186 1.1943232433189055
35.870598060018835 -120.42900558322872 6.33881416965302 1.1787337724814244
35.870245259916395 -120.42586254091563 6.9343340938723514 1.069005984088911
35.868444302900656 -120.43034910343367 7.499981052754729 0.8865866640873543
35.867216519708634 -120.42631935413971 8.003535007104155 0.7580792066766302
35.870454199175896 -120.42501000676397 8.741373333387106 0.6037424794743528
35.86707567815328 -120.42674675729543 8.875697716026957 0.4982190903561236
35.870671401970114 -120.4290982290029 9.700325583334447 0.338509737445741
35.86811532828918 -120.42992771258695 9.936114307387403 0.1729841775192174
35.86794396763713 -120.42932814211166 10.353654590190652 0.01804642458659704
35.87502024487769 -120.43028365456613 0.42775997280006195 0.03725870238519534
35.87152045557803 -120.42777820001136 1.135382905320776 0.23782113198461133
35.873572660172336 -120.4285804716336 1.3494200518265715 0.45081341205958597
35.874790583985785 -120.42941572074041 2.247180007667063 0.6890998218388713
35.874583938376965 -120.43040855168724 2.440619254365801 0.9505185143654505
35.87142646988524 -120.4281341851963 2.9694680648924154 1.2164652074117346
35.871801329939665 -120.42627325973238 3.711418292220615 1.4114980569664488
35.87213093576191 -120.42774235562442 4.233039436856266 1.4727568600920307
35.8728083889133 -120.4275017690885 4.2558511259149965 1.5344260425713525
35.8749051893315 -120.42742349048721 5.156213825045053 1.6010981292601405
35.87444247862541 -120.42708469044071 5.394584068797778 1.642753844049314
35.87156421327859 -120.42583749574347 5.829570019769957 1.5676989181454095
35.873715668174896 -120.42972496894221 6.383504962360802 1.3878415841026985
35.87249024375254 -120.4257838236804 6.836310566517424 1.189370700116977
35.87266418940502 -120.43018512373214 7.351559217284706 0.9938841163347627
35.87443678674445 -120.43045988235852 7.983321011538641 0.7976201290469286
35.87217789005147 -120.43020570107474 8.731731654509577 0.6503225201327818
35.87403421630903 -120.42967938898256 8.947418060513108 0.49161440951077395
35.875149384376535 -120.42847598890901 9.667866462783886 0.325693632167439
35.87240206325786 -120.42915615839587 9.92166937065064 0.16688963755304229
35.87284386818737 -120.42768098674607 10.57531891139589 0.01831548491348552
35.87703164524497 -120.42620690683104 0.4909625111170227 0.027875021934945867
35.8796252723525 -120.42674651887974 0.8916175022325386 0.22613509840360008
35.876640828746666 -120.42741881363747 1.7018692395352286 0.4334274926475667
35.875635809682414 -120.42711574723631 1.9163956158258715 0.6589801984757637
35.87661663007008 -120.43008873377089 2.6309191875642455 0.8900091523740358
35.87546413401455 -120.43039813045182 2.79384859623652 1.0793202823916275
35.87595705517728 -120.4302205060134 3.6575451182212184 1.1008745295059474
35.87528246782175 -120.42895046371096 3.7972865940997047 0.9819057274365338
35.87956801644832 -120.42842277436782 4.638297042122684 1.0053483108793293
35.877690058880574 -120.42946545638453 5.014901824288405 1.1439308581835044
35.876122717207814 -120.42718725002548 5.696512729017537 1.3467266223393761
35.877272574580296 -120.42982940038986 5.791091860968276 1.3167151004593496
35.87766241255856 -120.42560690185454 6.68808729068156 1.2142746616691917
35.87751390269065 -120.43038068387396 6.911913861787152 1.0268514990378583
35.87777079011084 -120.42964109219012 7.445456336258195 0.8194651648770951
35.87727109427794 -120.42622150487036 7.958421183932032 0.6253865663211695
35.87748457115164 -120.42780124598436 8.61286287859593 0.47590110432064675
35.87726719536665 -120.42961996502616 9.070630302563597 0.3465718528349935
35.877998740158525 -120.4275260524994 9.748574018184627 0.21776996808548615
35.87844089933986 -120.4273986774961 10.028542278046272 0.08952424773114177
35.88219686379538 -120.42690765462464 0.7949596768684828 0.1240247862482942
35.88412914870917 -120.42550770461312 1.6764763493906827 0.2935064765867968
35.87994792537691 -120.426345421593 1.8636879013747392 0.4603469330421098
35.88173796733637 -120.42712872179978 2.407105755639377 0.6009087316910093
35.881468166689515 -120.42754726767632 3.232530835429263 0.6685895313051112
35.88141869387352 -120.42748991040281 3.388895583100699 0.5890939640963051
35.88015343148572 -120.42672636644527 4.096344484268554 0.316161185434607
35.88122777619171 -120.42788992593462 4.30307734422184 0.1118866117634207
35.881087084806744 -120.42954156527566 5.083642478847367 0.19757369943541125
35.88089272740219 -120.42698621495249 5.354034428843441 0.5405841809366706
35.881042027519875 -120.42716210862817 5.890326920941563 0.7738970624815101
35.88022218431278 -120.42769273465734 6.538191705380322 0.7727824787602571
35.881288386261254 -120.42908994325727 6.789526216987053 0.6458625534220016
35.88405857340689 -120.42538534672025 7.611546077894575 0.47128729803737845
35.883964776362895 -120.42821379890529 7.813249176184399 0.3093550842454942
35.883263661936596 -120.42834143800002 8.401971585856698 0.20126335487484567
35.88198417053105 -120.42614645024868 9.033889427430989 0.12489601869704312
35.88041487020364 -120.42798329547949 9.699224361259358 0.04678101897868607
35.885544280503204 -120.42755125609673 1.391186706993271 0.037535208768844884
35.88730260098305 -120.42924824624119 1.8759456757986914 0.11578785818175708
35.884240930108 -120.42773501606563 2.3378123723845436 0.1354791582237934
35.88826587984172 -120.42498835761536 3.075398002473185 0.05030628143433521
35.888510298523734 -120.42645468061531 6.457244611504999 0.09888412999768775
35.887547349338426 -120.42656104966068 7.034978286085238 0.11622242840208476
35.88568996926889 -120.43035564238647 7.442605327794748 0.050228420094699466
35.85548692435411 -120.42235696381226 6.879408222207026 0.13825601838356083
35.85505827207889 -120.42485348529712 7.300328898740917 0.0991478730921273
35.856767830608305 -120.42458830789964 8.341409113812572 0.0020444953767299705
35.85450971385682 -120.42301171859663 9.044100487252663 0.054218599570147935
35.85707765253619 -120.42332477969349 9.573805035614255 0.018227833468458104
35.8582648541903 -120.42439281603507 1.1620519376185 0.02867169690260787
35.860033317147874 -120.42445377302353 1.6854142836358146 0.17094611043452967
35.85979941310366 -120.42049120007628 2.1198967348343767 0.2925051063723459
35.86151027252011 -120.42079578097949 2.4467524915083234 0.34356310983824345
35.860921496319094 -120.42169550159512 3.1003109950121064 0.2235106873631221
35.85943091088214 -120.42164238754054 5.943246895598316 0.35208904432637544
35.86104299431596 -120.42185950611682 6.252672658687278 0.6756613127576193
35.86053201073659 -120.42444459031327 6.902921204037465 0.7321054770360564
35.8611945465164 -120.41955829159194 7.505724686145821 0.6101181120668229
35.85812912333777 -120.42407217385065 7.888185583678823 0.4000381678657607
35.857971904963456 -120.42435430061111 8.689067523574154 0.34195244442059247
35.859525925493315 -120.41961279406175 8.883058512311168 0.27048741740795584
35.857434772374766 -120.42017019130346 9.553583056305289 0.21132782166413686
35.86091131424705 -120.42175256810646 9.86593051959185 0.08477816886787544
35.866204440207696 -120.42099421604885 1.2239102666595856 0.14988501247303995
35.8635936575042 -120.42488726535976 1.3158823391075618 0.34049831491811755
35.8618096359037 -120.42353392277549 2.2283557854470635 0.5437127546730365
35.86254775600398 -120.42021171093926 2.5669220483900026 0.7402635176121808
35.86311492128372 -120.4224536896859 3.0916728888024885 0.8764366784693859
35.86201687086137 -120.42259260694267 3.3440877132226277 0.8357560362288554
35.864013168395736 -120.42002153406641 4.192423137903374 0.6614208145090164
35.86559370852426 -120.4235333536474 4.3812425023572805 0.6139386031485108
35.86263122215252 -120.4214803018322 4.790435980346322 0.844514765161473
35.86310030531986 -120.42432014732171 5.312903727149625 1.167403760085148
35.86239680501678 -120.42024952035763 5.956772145006535 1.3023209654735954
35.864219616096925 -120.42477351004875 6.439615792020484 1.2436414935384752
35.86245303701665 -120.42471087662189 7.004100902433188 1.0983831951509413
35.86574927940062 -120.422020085537 7.4242214350092315 0.9044124770741733
35.86606345114435 -120.42049002895384 7.945523545156969 0.737507382305979
35.86178024138603 -120.42180516053456 8.507755535969737 0.5538918865947711
35.864496584279586 -120.4198556047888 9.061361643592718 0.4511375161174734
35.86404450030235 -120.42005540758743 9.2583929393349 0.3064475540319096
35.86431387396427 -120.42266608235627 10.181987920583417 0.14767854800666755
35.868290624454794 -120.41959780670535 0.43254506843834545 0.009105957081013135
35.869684638802795 -120.41971251125028 1.045389907156495 0.2075629570361519
35.86834565172455 -120.42133878115568 1.4239865700204684 0.4216844930971392
35.86755748243312 -120.42307257663246 1.8519323250868258 0.6665222287708588
35.869298662716425 -120.42241584755487 2.5105489590586405 0.9422607868613743
35.868517192254295 -120.42033929796874 3.0272269975105455 1.228832201861433
35.86867428113777 -120.42174472319806 3.4234192142679842 1.4349214728464295
35.87028256927443 -120.42234851791883 4.221407409668145 1.5389847629601743
35.86874723569047 -120.42154140017014 4.338231491012698 1.6229940619580534
35.870678894076235 -120.42141602257455 5.187151019413799 1.745051565535862
35.86757424230599 -120.4200128022577 5.343076085234301 1.7876845364917355
35.86874654739178 -120.42393826071658 5.793799311134206 1.6420153589206479
35.869851109062495 -120.42104270938867 6.571496330542394 1.3987409764630432
35.86867386938647 -120.42407032386885 7.150470927110451 1.1432825775863535
35.86664780121883 -120.42293971526475 7.407985988580811 0.8775985863285428
35.869273766742445 -120.42165305577134 8.231121768510928 0.6658207037204871
35.866749064278835 -120.42113818270654 8.494773094618711 0.482073758916922
35.87016059912604 -120.4225748358513 8.898657361590422 0.37927288703071593
35.868430127997875 -120.4248911812112 9.631376735303554 0.25789046642806934
35.86673100011451 -120.42434983799119 10.111983160757894 0.12151339035032398
35.871057398016895 -120.42044637599147 1.0973084060657066 0.19097670189069796
35.875170290514625 -120.42325972891979 1.3481464468177466 0.39663688288347
35.87272701249533 -120.42373406973904 2.191478443913859 0.6264435632536774
35.87154029069552 -120.42461792668747 2.534425117610847 0.8737992557496996
35.87106677272102 -120.41971106101778 2.924118887097029 1.1061027209208911
35.87358435325299 -120.42286169644211 3.662747926777404 1.2301255651637424
35.872986828465855 -120.42477370658276 4.096721446348678 1.1381354239645411
35.87166585470129 -120.42199206701146 4.58357191531675 1.1023487563330987
35.87231274228129 -120.42198633567055 5.1280543511187515 1.205029575286301
35.87249933570538 -120.41982555473183 5.474206299755771 1.2467027940699327
35.87095843358973 -120.42379335988893 6.231260422920007 1.2623596909310857
35.872144580352156 -120.42216093591081 6.3471456580125185 1.136623171723551
35.873854886106564 -120.42033868990382 7.169583486756492 0.9277828833194949
35.87266681873829 -120.42262737430474 7.292936905348547 0.6681864612326367
35.87129112577079 -120.42231453312209 8.10560472069989 0.4529383587358174
35.87220774626066 -120.42284705158019 8.6268095279047 0.2750965486927345
35.87319810227815 -120.42339431157413 9.21225630936199 0.19904760888392328
35.87303853073907 -120.42142284796331 9.703075350457253 0.12127097399811798
35.871838995380394 -120.4234765787308 10.140172111575655 0.02641880256188056
35.876878342182415 -120.42257251422708 0.7850890120292947 0.0956259397996259
35.87777816864636 -120.4213195562649 1.4267139804962055 0.2641983820445306
35.8778320709461 -120.42144720576425 1.997817479640483 0.43389967811102376
35.878845957237466 -120.42407963127951 2.716495560461866 0.577958297587062
35.87619112464026 -120.42433104381453 3.124234456501477 0.6231084624100847
35.87749990603897 -120.42084778770374 3.3323461080531476 0.4275577723269348
35.878337555503414 -120.42025886826669 5.664930344801163 0.2593965025142605
35.87723475224357 -120.42321629516464 6.05840859514057 0.5281766224973512
35.87948757543827 -120.42478609322116 6.4664970363678025 0.623987100294336
35.87768456730715 -120.42126094426871 6.9703370879315525 0.5179419561177633
35.87636697184897 -120.4195531960576 7.7190455314207505 0.28886927424084435
35.877849700137695 -120.42401295302105 8.167400039164782 0.06377905846921088
35.88254593164478 -120.4236688228488 1.3484005766074842 0.0341467185029692
35.880226852264336 -120.42060530163548 1.9165049349573688 0.12451662085512842
35.880975707786234 -120.42356588525085 2.4724099616979403 0.1634319071892647
35.88036175358735 -120.42443111296387 2.797860413106878 0.09710593736796076
35.88291656036097 -120.4241254385561 6.7323193231937895 0.05446936286274561
35.8823477574732 -120.4205591437814 6.806384290456646 0.02420551410517838
35.85086322918266 -120.4191950470834 1.9942957694002452 0.033233990117918846
35.85217495033752 -120.41442365387338 2.619095499440056 0.04250927864035354
35.85187177462774 -120.41679680569982 6.7104803664286 0.22808917375979373
35.849869210983215 -120.41667593285618 6.880012739651322 0.29703605911467557
35.849592803199606 -120.41739738286168 7.631158216840567 0.16733159421695198
35.85140669271957 -120.4141506178692 7.751066903558999 0.011797585815530977
35.85446063166896 -120.41401041001433 0.8639010941966128 0.025801974525654976
35.85373716027632 -120.41600473286775 1.6649453898712951 0.18579969701285812
35.85289431840657 -120.41839529525058 1.8224902384188468 0.344285017853875
35.85291511185543 -120.4149495588534 2.6617392909427116 0.4673055776438074
35.85595925482659 -120.4194134601462 3.0834759830082055 0.46005093952032755
35.85674962228051 -120.4170611216614 3.615075571319558 0.15409284252843827
35.852836940388535 -120.41547889812668 5.401192993538153 0.1641920781669371
35.8550752734275 -120.41603455597878 5.938194418515332 0.6490282320264196
35.854705184486136 -120.41544565903435 6.279777081664107 0.8592769667475784
35.85350732466253 -120.41860299788327 7.009626344444164 0.8288353350396728
35.85425797945267 -120.41886200244672 7.717092591945911 0.6787222947885733
35.85329249556243 -120.41804619926576 7.890893854973059 0.4759497677388237
35.854523795833884 -120.41868230832297 8.313802524537385 0.38832879875339904
35.854376570823234 -120.4153648329463 9.238798426691583 0.2930348833489229
35.85642758050942 -120.4166054055085 9.323541843175914 0.2087417049627415
35.85489427719623 -120.41737025502083 9.82476037046963 0.08156975005803521
35.860349505458046 -120.41643087392066 1.006536902244052 0.13685388439691665
35.86016592792274 -120.4162679877778 1.2831962319969548 0.3371138958578211
35.85803971972469 -120.4189321309753 1.8407555727164673 0.5598970260540198
35.8610952911754 -120.41596481587317 2.3313007334101763 0.789186894090728
35.86105953998714 -120.41656437395494 2.8746696722989658 0.9575719062436984
35.860789935789896 -120.41532851764252 3.3814116147066446 0.9160195522707064
35.860005268644244 -120.41424881363666 3.757000805949309 0.7594657935428573
35.860432951855785 -120.41477016565264 4.473636350602996 0.8680084899666608
35.86082781579204 -120.4140152567394 4.764993933057226 1.0985405864153024
35.858520305682895 -120.41919703040053 5.344190868635284 1.2996813445803352
35.86090463263538 -120.41731794337302 6.214737173114397 1.39858137994265
35.86133562729315 -120.41519621406084 6.591237785717529 1.3146626400658046
35.86077520634202 -120.419288940957 6.845417291641467 1.1339970039757705
35.85935049075723 -120.41420558566068 7.381777246181944 0.9077167178203344
35.86005392680951 -120.41540467201813 7.766987182757876 0.6652830854130574
35.860435566768494 -120.41437227197368 8.44292367972832 0.5241675817992969
35.86132898939458 -120.41439534838717 8.978733501738567 0.39390162603126544
35.86086180674076 -120.41736403993251 9.679266941132491 0.28178050630544377
35.85846248012324 -120.41722706767214 10.226544645367198 0.1362546742112085
35.86204623656941 -120.41421345510695 0.9511243521357766 0.18096215343592406
35.86423684679827 -120.41631276322798 1.6400905254381142 0.3947530231579311
35.862950550156185 -120.41694188108623 1.7801660389723268 0.639964860083934
35.86616634675599 -120.41622113597123 2.3467225051570235 0.9111182760960034
35.86391447498495 -120.41700042500239 2.829913818722982 1.1681727364126013
35.862472922959 -120.4191884758501 3.3143606907917897 1.310843658417235
35.86447909370474 -120.4153434967617 3.759592780643975 1.3889085029309407
35.86575529325149 -120.415821472929 4.455110153240748 1.546048850800353
35.865662341342606 -120.41443525616161 4.78909423089618 1.7607692091658078
35.86609415172932 -120.41793154521444 5.2873082434911 1.834550175857771
35.8643076267209 -120.41662560133567 6.151658386954458 1.6606532133025325
35.86231449143327 -120.41673909956688 6.531212441530815 1.399654300665069
35.864757940939256 -120.41436584834597 7.075914090759868 1.1328070281872609
35.8617375583646 -120.41668511575526 7.428393419482283 0.8597689164334072
35.86206989204634 -120.41488063646383 8.029867439204954 0.5825702294831069
35.86597238327816 -120.4139984132415 8.528616244095614 0.4467013894785479
35.8649705033305 -120.41464679342113 8.957243247044683 0.3234195092948147
35.863742451301604 -120.41712167033258 9.436068396096811 0.22779883119541136
35.8643507980728 -120.41922933994937 9.908014148438735 0.10016687754825501
35.867904327881185 -120.41733329977228 0.9740935440388401 0.15453363246074456
35.869610988300195 -120.41464692418764 1.7301497443099765 0.3518324431943454
35.866988455613615 -120.4162245652044 1.7714035524491611 0.5672996561595549
35.86890405683791 -120.41649908747087 2.5040806369403197 0.7817940493753684
35.86643504560847 -120.41662349644783 3.0838206661214036 0.9233083025583717
35.869856444704595 -120.41500813440331 3.6697380442753764 0.8220172393338
35.870667168031105 -120.4157097367251 4.043378258289605 0.48095554135349755
35.870253693246475 -120.41875225220106 4.478992458780747 0.35849633289285887
35.86775223346612 -120.41883417837177 4.776239400606376 0.653381269826426
35.86715688275857 -120.41894398569252 5.293161115171348 1.0153353872700126
35.86822814876172 -120.4170749222036 6.082010307244632 1.1439506470795
35.867021700378274 -120.41716668292985 6.627884890968193 1.042684558262419
35.87053252771355 -120.41393728637684 7.222773467494401 0.8386497600023312
35.86905639189213 -120.41517138818494 7.583652936426353 0.5436495649027691
35.86710413256369 -120.41575021126282 8.086493457627286 0.2874720099766908
35.868869789194285 -120.41691609437775 8.529363885164313 0.07919174831038654
35.86729966188786 -120.41898407206705 9.16531410883002 0.08617271005203064
35.86776673831104 -120.41776587312 9.310200043900874 0.07096458142603995
35.874881733763374 -120.41458183106475 1.0183521674811717 0.059533040426172565
35.874934786929636 -120.41832083945427 1.6046367910271355 0.2160351804922918
35.873775876563265 -120.41787042251303 2.2167058053104793 0.36366356149497475
35.87464553392917 -120.41733853726018 2.6192999994697255 0.4617918873836242
35.874007661171525 -120.41907469437558 3.1202809487358936 0.41104420847112016
35.87241791296535 -120.41867356006712 3.413976899402316 0.04502617617092229
35.87479038999593 -120.41920443344475 5.793943487909552 0.2905622117664442
35.87403489745571 -120.41778937500793 6.304394094768377 0.4515571393255061
35.871054010962354 -120.4188646289021 6.83437326395481 0.4287177563737192
35.87350662491527 -120.41432902871168 7.727486022430639 0.2905951167910635
35.87300020802373 -120.41674254952783 8.061960101043617 0.08891877808531677
35.87853814407854 -120.41739487168705 1.3714017049461709 0.003947927768577259
35.87614652321987 -120.41885715491023 1.9722053164477185 0.07318277002894774
35.87724902337096 -120.41740916667753 2.28541995699604 0.059584419539886704
35.84790805123315 -120.41241655649625 1.9552921942402304 0.013956358559734313
35.84658654208168 -120.40912579268682 2.6313942473077825 0.021573934240954665
35.84570408373779 -120.41343178893766 6.623343584997451 0.26241889620434333
35.84809059961089 -120.41117057317015 7.096733261766854 0.3450770728453297
35.8461745785481 -120.41237473944922 7.722379267426377 0.2651736745187937
35.84542905817182 -120.4132583303647 8.058159430917035 0.14590599834883705
35.85214835236212 -120.41378414174525 0.8069455145902599 0.012199446155808898
35.84999705721816 -120.41009416169351 1.5706996616514597 0.17604795916693944
35.85140696806308 -120.41240278952564 1.8731703690440684 0.3438499695401669
35.84975119365767 -120.41181211457913 2.5206348567459553 0.49436961581952005
35.851064958814796 -120.4121762227256 2.794997155396863 0.5846827274261223
35.85261398266859 -120.41327202002128 3.6617490533548853 0.5637748070522218
35.85048730091758 -120.41065542039222 4.15661088928907 0.4461993405504211
35.84953693515573 -120.41360169082822 4.690958231603684 0.37714136558328937
35.85102645761179 -120.40940432300931 4.9647039492988085 0.5456853283104988
35.84934322333198 -120.41385175258257 5.380287195650169 0.7684879993798933
35.848775386097714 -120.40934120989435 6.0228824594075725 1.000867929531348
35.849396676891864 -120.41354044794767 6.452493257773026 1.0112236979204603
35.848310491539074 -120.41136422835902 6.996848540942192 0.9076411443908332
35.84897079115367 -120.41154425825165 7.3067789695971115 0.7400415864412558
35.84995342192983 -120.40845521620318 8.002511003531511 0.5954015503401353
35.852158980336576 -120.41102797189245 8.485783445661552 0.4572850504488622
35.849940383392884 -120.4123434126118 9.111111237308103 0.3777097673783808
35.848326376882255 -120.41209810698014 9.302243852220284 0.2575425427257385
35.84950390411274 -120.41344164045945 10.05667995715775 0.10880908969118055
35.85329241012014 -120.40868937800785 1.0210321032866845 0.12161773803064067
35.8554147451406 -120.4090471588993 1.5776821255101061 0.3244444149881554
35.855600526130644 -120.41097546851944 1.9717052954412984 0.5546460430875143
35.85476880179952 -120.409425404664 2.663654603880675 0.8080579354330468
35.85528818586219 -120.41260309295295 2.8747650263807545 1.0568950502523873
35.855503126902995 -120.41383424635498 3.576984848350269 1.2077877196963822
35.85566178453321 -120.41369180913435 3.903489698204835 1.2694900501007773
35.8536227322525 -120.41187066893578 4.260937155477367 1.3199246481791116
35.85667088918595 -120.40910890165233 5.247558264270638 1.3675040871279716
35.856697908548576 -120.40987279513496 5.724099671094181 1.4441272445892408
35.85466486294231 -120.41292112226205 6.148026578065529 1.4447132851767537
35.85276750873535 -120.41129175050025 6.5207702691243306 1.3609963276400732
35.85514271054479 -120.4128325420458 7.149268820879705 1.1833132804631767
35.855812784676466 -120.41171921440373 7.484800832060992 0.9694585212495146
35.85613607585905 -120.41210788082516 8.025993949442572 0.7920962976525375
35.85623005752452 -120.40872887026212 8.50715871659847 0.6007355187901708
35.855648683959195 -120.41167122989536 8.97252108526151 0.4891693913732259
35.85589885261741 -120.40830897143765 9.306737954006723 0.33354037995386526
35.854103992155224 -120.41318580570697 10.103165296239462 0.16245135703767932
35.856326271345004 -120.40894464177845 10.386935210013046 0.0003789027467704599
35.86005025214421 -120.41136979011016 1.092155694699371 0.15619576732384208
35.85762980227735 -120.41111607062847 1.7299926325437305 0.36542022163734017
35.85789199256981 -120.41148583365491 1.7654434081670867 0.6043143758927076
35.85733856945812 -120.4096084879814 2.303221139162484 0.8707705918586476
35.860179254164954 -120.40983425959271 3.00106627096355 1.1407565510525088
35.86119071806862 -120.41160152368545 3.313265981364432 1.319730034199705
35.8577830493318 -120.41153551770046 3.7611281240734566 1.4267791606245734
35.860407167794904 -120.40936235522692 4.595845251659545 1.4849449549285154
35.86072484506113 -120.41316313363508 4.846698775574646 1.5667013888031196
35.86164950241123 -120.40940790596392 5.320718800962158 1.5461996147940325
35.86024610765909 -120.4110918291821 6.065060854861016 1.4886341595737074
35.85999453049014 -120.40950234928759 6.37327362402284 1.3337735530547892
35.860647187420035 -120.40991608446726 6.986420758214439 1.1208407918556005
35.859656870507926 -120.40912664347096 7.380011557767958 0.8487103538106913
35.85819585615593 -120.41141283220482 8.182476901450212 0.5460075156042127
35.85961168635595 -120.41332878719977 8.70441246448491 0.42514559389066015
35.857285011892984 -120.41347788884951 8.932857235727344 0.31445559697614084
35.860918810192594 -120.41094425109395 9.71883452004054 0.23696271209538342
35.85772126855475 -120.4128859347164 9.915847405502923 0.1048071446437713
35.86293899293052 -120.41210395675593 0.7616144561629294 0.11730774029882557
35.86571849484935 -120.4124908885606 1.6478059341212166 0.29988845688234794
35.861813960500534 -120.41115350088316 2.2022745134672506 0.48967175173571265
35.86477962029311 -120.41172303472477 2.3730890453259006 0.6615917283996388
35.86281025404982 -120.41010737064131 3.20270612724528 0.7484925592918711
35.86359123124686 -120.40889129819003 3.321041506559215 0.6095243750657002
35.862306196791515 -120.40839516158483 3.7880938590961772 0.29408078521724357
35.86444525745403 -120.41002626707562 4.405258373943058 0.1289213169257988
35.8619660939105 -120.4111343133266 4.915018946025503 0.2779919993290917
35.86211102671653 -120.40905833664377 5.289488694000496 0.6336782055262373
35.86556900987154 -120.41124949277035 5.815678029420862 0.8723289274386606
35.864959060618894 -120.41245059336521 6.734824190303913 0.8922366183765033
35.865178107667326 -120.41198491607729 6.975676661496813 0.7514701614708763
35.86316462616217 -120.41295800009658 7.423139490462674 0.4972585085685561
35.86401073975109 -120.41143714587449 8.032717513867526 0.2590251005128529
35.864433627600135 -120.41107527783069 8.433373220754683 0.17704063903143366
35.86456972353513 -120.41195787154673 8.943094404629717 0.1732733546130627
35.86424727561763 -120.40847664690838 9.31783814668513 0.10407963654794058
35.870114356389365 -120.40922220407451 0.7812729329081609 0.0142661484820614
35.86828906570572 -120.41096861850579 1.4772731562121604 0.14675448234225194
35.86690796331623 -120.40963848140692 1.9904837766723469 0.25017277140581473
35.86965854791853 -120.4123073862594 2.6679937381213326 0.2678551106911065
35.866925605206944 -120.41024624535386 3.0528977966901842 0.08585891600304459
35.868101728429075 -120.41176677759698 6.415487225017911 0.19040003763142063
35.86873219444101 -120.41054542170126 7.121012057754746 0.21804867524651064
35.86699513231341 -120.40871558077029 7.460395143861867 0.008236302769396596
35.841032210499485 -120.40704808214281 6.585835132472555 0.15388286831780407
35.84099767849637 -120.40474526529287 7.121422472026002 0.3567280740239113
35.84320930027054 -120.407912723905 7.274390739278508 0.37278421925561916
35.84252055410727 -120.40727728731795 8.233417995588235 0.30165057531102735
35.83946463898101 -120.40642655242186 8.400028820154752 0.17650145924423502
35.84352733842266 -120.4059438938785 8.76753592051259 0.10391359713140988
35.84473523965416 -120.40328959252793 1.5811503452573061 0.14956559975462555
35.84527650619909 -120.4051348441907 1.9963722573230331 0.30461704577489906
35.8446480801044 -120.40657921136463 2.543327368109886 0.42367759074161804
35.84513061363796 -120.40370250988151 3.147465269464015 0.42293281861833654
35.846844552351364 -120.40294621180995 3.6764246821365654 0.18151189235438742
35.84810023438643 -120.40426363788879 5.260432870710188 0.2733535412650327
35.84490948019791 -120.40825686221007 6.14626259332002 0.6861243669986923
35.847320741726925 -120.40497250058297 6.292134345485347 0.9377308796470573
35.846804048185604 -120.40654502706056 7.099047919252614 0.9620559543902837
35.84766678199524 -120.40327542477152 7.326065274284504 0.8774511115620439
35.84383802777584 -120.40776045421285 8.230773821672917 0.7401054239791651
35.84749182434179 -120.40301890669818 8.364891642753683 0.6131319353426709
35.846710254429624 -120.40297694390583 9.156828739512747 0.4430625861886971
35.845040029152756 -120.40404497389693 9.26902977451993 0.29616919025213917
35.84439833235074 -120.40303600052867 10.083988937012958 0.13582237237769243
35.85083447237713 -120.40563989419928 1.2367921966365774 0.1045968047059891
35.8490139155563 -120.40344006255512 1.735981639451815 0.30277862003039935
35.850222969378585 -120.40469991247517 2.142226897092139 0.5226767195491552
35.84908283864663 -120.40430665189177 2.393324211972079 0.7517055458778948
35.84881540612431 -120.40511012348956 3.0969608275999834 0.9418885039563071
35.84886089005147 -120.40507357354205 3.6892922824379846 0.9984551486482248
35.85158271822456 -120.40462301961922 4.067209099229278 1.0277362653984519
35.85225128085185 -120.40715264378585 4.595779068776552 1.1602669634640477
35.851283710650385 -120.40596232267887 4.83858512134722 1.3184723615682035
35.851005657755564 -120.40616064460191 5.61537416666784 1.416591333612238
35.850574521717085 -120.40401170887267 5.947331734417184 1.4246669411188235
35.85191077343657 -120.40455679165792 6.709040003180954 1.3777137502359427
35.85139835014088 -120.4069006923097 7.1074860148306716 1.2273552812344677
35.849406398697845 -120.40536832725316 7.598533149842009 1.0107121640031556
35.85027974541798 -120.4065268823162 8.24607141561303 0.8503228086231172
35.84936910710757 -120.40368935421229 8.625482096228628 0.656212198540986
35.85227684990246 -120.40700754121264 8.864607101498322 0.5151453797759231
35.850274997273914 -120.40807731994391 9.30414434645985 0.3487467061341568
35.85243134884098 -120.40677970189432 9.932928747946171 0.18100791813967554
35.84885090956112 -120.40549065085585 10.427863219613808 0.015478024183488743
35.854522297250504 -120.40312821999105 1.0155871243960917 0.1360134638694436
35.85576995825505 -120.40495496578735 1.624210769721789 0.33982285739300566
35.85704718666449 -120.40604060019498 2.2124607823192775 0.5698291133376737
35.85371782575201 -120.4041643202153 2.59261116882903 0.8226019653775886
35.853058077014445 -120.40275277052933 2.8231892892006534 1.0739567053045045
35.856414910717334 -120.40432191501922 3.3893624377215628 1.2488356490986487
35.85518774131246 -120.40758447443116 3.816094894499261 1.3888886613276663
35.85675070655397 -120.40422840008287 4.634805172028225 1.3658971423418766
35.85454807918454 -120.40663794024255 4.965099999794045 1.350936911813515
35.854757862054626 -120.40730165510433 5.52489920564541 1.3088981062611098
35.854082325532666 -120.4061077709738 5.971950457936722 1.3348019890733092
35.85638646551702 -120.40672832276383 6.412795223329465 1.3069114586508865
35.85549966950696 -120.4041490386323 7.236211861511649 1.1740360773307559
35.85392524727826 -120.40472143835585 7.653079580622303 0.9798713939383296
35.856232563127215 -120.40742068684402 7.912142410785805 0.7099051488103806
35.85344400814999 -120.40574510128351 8.634911495399185 0.4616572796846508
35.853459634889425 -120.40476755801195 8.981135014186254 0.30459444588403306
35.85406800364746 -120.40369291104378 9.301535144516578 0.202891397057696
35.85477200208574 -120.40413740651884 10.172367830286815 0.0932475982343738
35.85895309603899 -120.40518173583077 0.82575590367666 0.08709575650753863
35.860440169565074 -120.40686416409808 1.695416111464243 0.2587141863368627
35.8583716588865 -120.40745621302356 1.7985272917065358 0.4326943981646866
35.85915632759963 -120.40623200678908 2.516024765939985 0.5858463039050827
35.86147172878354 -120.4061514045527 3.101763097534645 0.6590556381435274
35.86123391587768 -120.40388135724778 3.649446170755985 0.5330453634526828
35.85868454736903 -120.40284895352396 3.7731219985809523 0.2812873945527709
35.86025580528192 -120.40362982472216 4.371291462831631 0.07820412708852477
35.86004332249067 -120.40348445876135 4.903822968001592 0.14336478717354498
35.861684213193456 -120.40488876345351 5.297712987062959 0.4197811379971502
35.861571815514694 -120.40524307184006 6.043019421155254 0.7134222042211575
35.85887224949813 -120.40752764133437 6.5392194727096085 0.8425489744398642
35.85851733591733 -120.40757355789749 7.217322342914193 0.7912069383767826
35.86089058527731 -120.40735744499821 7.741724620162899 0.6006543124148438
35.85964536699031 -120.4029598441079 8.028466787065167 0.2764397149554756
35.865854231384034 -120.40451718428005 1.686796099913743 0.08408459196913773
35.86528435130041 -120.40540651404118 1.7606266383188443 0.15719269982870188
35.86203483360765 -120.40604377635673 2.3884294205764975 0.13213507003851155
35.865391764809154 -120.40602335460909 6.324572238085137 0.09603289517146389
35.86496587521015 -120.40482841925491 6.890392666582569 0.1821721931025818
35.86210580608223 -120.40357807574784 7.55070924641899 0.0545132676706696
35.83527045759216 -120.40178269243592 2.633648557913235 0.0007182127047081325
35.8383882152239 -120.40002592644473 6.077578676986287 0.11103429236320057
35.83472318392734 -120.39752118059911 6.728792548566222 0.3285537233609481
35.83743939164609 -120.40263073135925 6.934352403972378 0.4416331662883197
35.83747542798774 -120.39893169072828 7.316748634926803 0.4693190867694002
35.8370177977292 -120.40137474452027 7.942568744397564 0.42120040570043504
35.83730341353888 -120.40006239542666 8.321942931592076 0.29936015969862856
35.83865275229643 -120.40139553610624 8.97268683866097 0.192276925426943
35.835992417184976 -120.39915636494878 9.619778073664977 0.0703025393011937
35.84124542152721 -120.40196286698087 1.3007675301143355 0.12918961075215218
35.83924985643342 -120.3975713756872 2.2216010344713935 0.2855549750180162
35.842854181433545 -120.39974348321981 2.575407531564151 0.4272076121416371
35.84073502889271 -120.4017302361949 3.1089313985987865 0.5294977373294193
35.84170508313704 -120.40202557907384 3.7283354205184365 0.5658008379103101
35.83942091086866 -120.40236307654092 4.229974932852003 0.5292353849809954
35.8406734176552 -120.39872403056528 4.49661768280546 0.4764291463866805
35.842395241973364 -120.40041077051342 5.0967147681052065 0.5293058135078095
35.84024146803739 -120.39936593635623 5.55381053836942 0.6828560658722345
35.84113263543303 -120.402444565097 5.99014168656678 0.9194335654999511
35.843588188299364 -120.40239799787409 6.71579805554475 1.0765507635163651
35.84053196136039 -120.40093988261002 7.073343457364906 1.0734912234194007
35.83970146578992 -120.40091920961785 7.4952347380696445 0.9918100873900392
35.84199336257698 -120.39964691699063 8.208852419193299 0.8554797591881094
35.84226150672382 -120.39794780407462 8.632657277040826 0.6567286814638783
35.841691358492945 -120.40105434007957 8.917801717099852 0.4749689543959808
35.8420687082853 -120.3982359551712 9.69931684076873 0.2897917673682233
35.842646329746415 -120.3996228266324 10.084295917977446 0.14888294297167032
35.84688611554211 -120.39880967153485 0.9075859780022855 0.08992006274112924
35.84392194604966 -120.40003460766837 1.301737719846713 0.2846536632109211
35.845494438513256 -120.40072163304615 1.8428866763659868 0.4996467122202837
35.84672295446903 -120.39762271929462 2.6317271557058803 0.7265233560836917
35.8465612539181 -120.40087875700665 3.0311872291470747 0.9358175479547044
35.84473072314519 -120.39948120837005 3.6360173162992937 1.0616653311135436
35.847800083466254 -120.40184204455069 4.080830651105129 1.2130556251109836
35.84612729208422 -120.39902686957033 4.335535901834349 1.3202464875999023
35.847644386148936 -120.40213230105661 4.771668249292233 1.3909969865504221
35.84469388888908 -120.40042138440985 5.374073412916251 1.4791447897683931
35.84606094448185 -120.40225180402712 6.093897645362929 1.4799121100561397
35.846368999589515 -120.40173937562523 6.4298463366464045 1.4341190691035477
35.84471294147848 -120.399387137914 7.21886257277465 1.2709940084939113
35.846934544525546 -120.39756040098271 7.59660582915393 1.0440149066949729
35.845502841579766 -120.40024266489725 8.138824754251594 0.8111712334981507
35.84464967006104 -120.39799256444581 8.464862703105474 0.6352092628897329
35.846735280762964 -120.4009492241312 9.198212653301136 0.504562931922927
35.84456003394118 -120.39882344103684 9.256260975957915 0.33389490298847063
35.84397369985892 -120.40234133943947 9.887971708866392 0.19229086274708498
35.84563258769788 -120.39967420319252 10.268070047002702 0.029853147339057796
35.849652933573715 -120.39816545409715 1.1282502372639716 0.12213687829149815
35.8487697173698 -120.40182771745607 1.3005900360966203 0.32381609617837626
35.85177636273963 -120.40066787325317 1.9569007486450634 0.5512747627514664
35.84919373602873 -120.39912269257742 2.66605873615732 0.8031803420183381
35.84953445620978 -120.39866641829879 3.036490417551538 1.0650433773487837
35.84895605423613 -120.39942832496872 3.543822942087815 1.2814663482729451
35.85180924873438 -120.40243734505803 3.8098991121853665 1.4016063235199183
35.84864654851631 -120.40039739132908 4.494923729163943 1.4880843768995695
35.84888670848541 -120.40172022775545 4.9580002960511464 1.551754315739614
35.85194354319522 -120.40212450112996 5.315378465688044 1.5099660168540516
35.84906201481206 -120.40167565157729 6.027490237470277 1.5185681488494143
35.85254803772456 -120.40055479681249 6.573536365808875 1.3718761294397184
35.84934314904766 -120.40072770389571 7.245772005684834 1.122915022209684
35.84824064056324 -120.40086214969742 7.578795684305992 0.7641460726251839
35.85205001784794 -120.39762804038995 8.133107972752933 0.4096444448378244
35.85142697732024 -120.39966150983497 8.419456577955637 0.2640610521466668
35.85186504210402 -120.40230072720196 9.023957293725186 0.18799533633837895
35.849443034438885 -120.40008374135054 9.635336986254725 0.15177338764344914
35.850662339496736 -120.40227882563354 9.9557336167801 0.09187352199840239
35.85359048900804 -120.40245191066765 0.9969704525501351 0.06797909305878225
35.85641118136309 -120.40091288845142 1.4329627253882697 0.23715422334003275
35.85357325833361 -120.39737238804511 2.157394219670371 0.4116185879309015
35.85552293655555 -120.40233521045404 2.33167445687681 0.5757818675900845
35.85294502881242 -120.39918372927822 2.9187032921257274 0.6881307040334007
35.85676082743796 -120.39746161911013 3.460994126349394 0.6448143417168197
35.85578232101907 -120.39750339386694 4.141913477247029 0.4896063998804213
35.853036557397054 -120.39964802051277 4.6450849189888626 0.3517667402462093
35.85356256306409 -120.4026228103218 4.977211587704858 0.38221114302916986
35.854194948096634 -120.40172676514746 5.44477003648818 0.6281828572672542
35.855834399916816 -120.40140832474668 6.031859282784563 0.8219899037837257
35.85542601658041 -120.4015639978939 6.65349231605419 0.8910112935087002
35.85411916220765 -120.40231249030022 7.055885240144583 0.7736325454277141
35.85469432760049 -120.40243124812278 7.29299432562846 0.5194990208729173
35.852969230105394 -120.40010629440361 8.024557838535255 0.2001983296748068
35.86054674652013 -120.39831303042413 1.6755124951337863 0.046493819804522295
35.86135366251262 -120.3975413121449 2.1374605233104016 0.11726387497836804
35.85954317369597 -120.39925408317349 2.2730209969178925 0.111383492865847
35.858161333948004 -120.39763873919581 6.4938838627507645 0.21426840346039958
35.85928907294745 -120.40099722676322 6.905843823953716 0.24726878688868356
35.86122438887091 -120.39830798673623 7.409999057903347 0.11677906218722343
35.8306691079415 -120.39319745387337 2.6939619590215016 0.022282088007835633
35.831567959494336 -120.39546356150288 3.0789163446248264 0.017152770454795997
35.832021894191996 -120.39540989915491 5.865408871712028 0.07977854919046996
35.83466778497371 -120.39175264910422 6.531055937613215 0.2971112809886896
35.830702932382394 -120.39626308293185 6.806334292527413 0.43957068005125527
35.83253890608026 -120.39610634530884 7.4754231566047045 0.502323496831441
35.830769920458884 -120.39177259828205 8.227057880332614 0.4662463658508123
35.83197312615412 -120.39370230779592 8.593871526495374 0.3638712656159192
35.831501364451825 -120.39207559964544 8.979030836134113 0.24504484124587936
35.834598683052846 -120.3949951919217 9.677025867408958 0.14161588921266452
35.834552235635954 -120.39182450110991 9.783907835959281 0.02728040323248176
35.83841162381818 -120.39576858507576 1.267168340368104 0.1160594421610102
35.836789235074264 -120.39179221941575 2.10956557709809 0.27724408300953435
35.835209930357124 -120.39284807636565 2.4468841752520376 0.43007765530958947
35.83535944979483 -120.39478274114417 2.7805624822162036 0.5458995112863153
35.837171297816155 -120.39566946595588 3.335481454877762 0.5801416617741827
35.838414615454894 -120.3939691491728 3.9720880442368656 0.5543742945429597
35.835872310862285 -120.39223678966567 4.591360709866853 0.6152266444113627
35.835479303511555 -120.39390311932438 5.110253989245607 0.7326849401551133
35.83749067046104 -120.39275232649837 5.398752534427151 0.9500557270327398
35.83680978522923 -120.39373298890384 5.918152895008827 1.13969491673686
35.8376501396895 -120.39583407909038 6.704285894021363 1.2327041690382243
35.83579335577174 -120.39484707852829 7.1791554008234195 1.1961212917668722
35.83837263320804 -120.39588951168419 7.332915992060505 1.090102745705909
35.835889651281065 -120.39371358921339 8.191614441561876 0.9474189215728915
35.83558261399788 -120.39277349551223 8.409847686915663 0.7704638805307633
35.835045394623165 -120.39255981085428 9.047729336884037 0.5627958364514783
35.83657912000689 -120.3937201864745 9.399824953900724 0.3901716324752103
35.83480457043325 -120.39528886324271 9.93210596444757 0.20696303349136977
35.838174220978416 -120.3967107179329 10.300600303219067 0.025040798975363092
35.843070807966384 -120.39485223821404 1.1459152505188943 0.07593102777908588
35.84162861407394 -120.39247997021769 1.4136959824833075 0.26927630744525877
35.841637636722254 -120.39316492254294 2.188165533262858 0.4837782325091065
35.841983322507005 -120.3939788904809 2.4925430604595986 0.7152140024661472
35.84324366839949 -120.39652405320804 2.806606880516863 0.9465916292241634
35.84344428935882 -120.39490481031005 3.5615506383447317 1.1341003456438936
35.84339827016841 -120.39176947139258 3.7955104530192263 1.2932129494384978
35.842478247199274 -120.39238132665098 4.304461594221759 1.383337879919679
35.839332061882175 -120.39308549863544 5.158393783250921 1.4126162164323013
35.84112989494938 -120.39313205489279 5.7021319431693485 1.4296408796063753
35.84077811729091 -120.39687986084586 6.105389951657926 1.4681803980436592
35.842394891965256 -120.39707673416054 6.4478364364977185 1.4559968353901214
35.84224282491303 -120.39227558190015 7.1251599059953525 1.3259900378048537
35.84297178685966 -120.39282556174568 7.730106274592926 1.1423307253216144
35.84262924800531 -120.39645747873323 8.003491347324761 0.9388785271077116
35.84094564238797 -120.3934424316353 8.517841870341295 0.6995643791810529
35.84247115072461 -120.39271815500555 9.110631977384218 0.5273764775349071
35.84245600639441 -120.39449645662904 9.613389338532047 0.33717551083213665
35.84173060854967 -120.39508509002161 10.134337205885483 0.2107556453893294
35.83980605656602 -120.39349695963504 10.569848609103376 0.045339901014858706
35.844159205787435 -120.39557567050652 0.8670322566764378 0.10920582549779949
35.84770393310862 -120.39524474992767 1.5126016702373724 0.3095863274632103
35.84419583419001 -120.39606673153071 1.8918424056790895 0.5351553415132255
35.847861766941854 -120.39405890196501 2.7030444179717508 0.7834386234763702
35.84700514361151 -120.3949472568233 2.8689383641448405 1.0351100044977501
35.84703273491024 -120.39594886004045 3.7289432819576906 1.2272725061858012
35.84429277897955 -120.39596300797021 3.934455351871791 1.3360695764184318
35.84655763273832 -120.39214899963049 4.744984693532564 1.2665519648511339
35.84620522199812 -120.39715911071791 4.77230062810019 1.172070222075298
35.845583200744834 -120.39433169535614 5.558538605672634 1.1122371367194226
35.84421174155513 -120.39521134021983 5.857300410056128 1.2055242911412152
35.8449238435911 -120.39347102613716 6.618268847560613 1.2267570832892054
35.844723187859074 -120.39191706905278 6.855856168898092 1.0564533199332085
35.84425208316208 -120.3946440309062 7.537761544723422 0.8030867361443725
35.84514491990202 -120.39273669264821 8.124011819546459 0.5815087410268793
35.84505300417661 -120.3937828052384 8.31041534906459 0.46153898120569226
35.84809936117397 -120.3964730945325 9.188010975366504 0.36995354033714234
35.84534585084388 -120.39382462435145 9.653499646146713 0.28055644244744726
35.84789976515724 -120.39209929632861 10.093738374163404 0.14519201156247485
35.85134374520062 -120.3948867912231 1.1625164467337477 0.053331506720387355
35.852084205145424 -120.39568254258619 1.2770005625896144 0.2229003340091286
35.85257522604286 -120.39693757289122 1.872564799951852 0.3997770790078526
35.852026707927166 -120.39604815794775 2.6982656605486612 0.5673945855319097
35.85163484759509 -120.39597469550672 3.1916620334755343 0.6763737146656983
35.85071552338485 -120.39532320352453 3.6424241351762308 0.6208368937607609
35.85040345916233 -120.39192634858846 4.212642255523202 0.40653927670606
35.849496498535714 -120.39670806279076 4.727336678367628 0.046200390150601664
35.85069758380169 -120.3936278421088 5.470089921516906 0.059360279132151125
35.85078608187846 -120.39532695748834 6.192192392567291 0.5024576528559314
35.85262244369937 -120.39347593960343 6.377859524011535 0.6881126039024571
35.84867333713014 -120.39540335373457 6.813411781190369 0.5713809979182832
35.849259374033416 -120.39632677254393 7.656390666632298 0.2969186050251795
35.851001483267204 -120.39665028820353 7.770063878204419 0.055523547925190535
35.85202451986891 -120.39235632726589 9.085631846496636 0.026115181340647935
35.84828786368406 -120.39619363563719 9.31377679728299 0.02534853061459302
35.85343972871766 -120.39591026399567 1.377945165733566 0.022722364481149497
35.8530800979923 -120.39662775355916 1.9719559147050525 0.095339013295097
35.8535925525623 -120.39231979234958 2.7078190175085135 0.08871263513673283
35.8530790621333 -120.39197188967373 7.18398858014303 0.03295556372202131
35.825681959916956 -120.38867436671717 2.3219539916701635 0.0782439819996615
