> GMT_LATLONDEPTH
> out/cube/20240212A/PointSource/FF_4hours
35.97535385941954 -120.48621968390603 5.469560927476899 -0.8815057490213983
35.9762479844829 -120.48900599065654 5.81166949263462 -0.779127956215124
35.97875733862667 -120.48810907712537 6.5897075440163 -0.6281150661444779
35.97470274539683 -120.48665672598608 6.7522805987471575 -0.44902388909098445
35.98114946540778 -120.48964751792954 3.6872285488095473 -0.9551118863074017
35.980000062121704 -120.48669442231908 4.0660700635330205 -1.0042868779408949
35.98063075754872 -120.48751619468447 4.740331763600485 -1.018160220755848
35.97960153986153 -120.48972223454662 4.993467611033166 -0.9936547202576842
35.979819385944865 -120.48700258298999 5.66497688039574 -0.9272738404520262
35.981314783294856 -120.4888136729558 6.1823761248667 -0.8184795940091949
35.980537566233316 -120.4900544896411 6.747838494712837 -0.6744234307255927
35.98348596817799 -120.49112309492457 3.4743235211508066 -1.1104996963932734
35.98449360496012 -120.49011906218708 4.099075111831496 -1.1274522017958157
35.98368327571195 -120.4871654160488 4.585662082806749 -1.1066966181244615
35.987547237626025 -120.4870812104488 4.978582152586893 -1.0502750296811771
35.98771206331398 -120.48707429586973 5.255970441949082 -0.9608642742244123
35.983733609817456 -120.48658892378025 6.093312484852806 -0.8428418264551703
35.98432301441332 -120.49086127543174 6.251948966606499 -0.704018061046919
35.988511476364636 -120.48881628370557 3.8511069779420497 -1.2323565967215173
35.99134647435614 -120.48959761749192 4.4150268183322225 -1.1850892017174386
35.98804279847503 -120.48990711635935 5.032557820574959 -1.1045579037221878
35.991048588414074 -120.4882128688374 5.5666504515422375 -0.9979031118311967
35.99025938440461 -120.49026731275089 6.047935522586888 -0.8728867158969174
35.99250183493239 -120.48629641510433 4.718308465203595 -1.2457924324898382
35.99559585015896 -120.48925337117507 4.857825742024218 -1.1524343084267803
35.99605227140615 -120.4905745003606 5.3942152900340785 -1.0376153718444612
35.9999043634017 -120.4884646412889 4.779971294696231 -1.1842059196777601
35.87767161669823 -120.48219735692318 1.4326516974881018 -0.9282357773568585
35.87634010047721 -120.48152605123512 1.9777119808060886 -1.3730557530293854
35.882785241387595 -120.48239885821377 1.3571412402509204 -0.6142810508481913
35.8803157137041 -120.48103847530015 1.7533189740577766 -1.011104309760586
35.882198209210635 -120.48294917684814 2.4212137011065162 -1.4446797296995917
35.883274492272236 -120.48199420344669 3.0413529857927233 -1.878264377453499
35.887344984320755 -120.48479413258008 1.95121795276201 -0.6207296865903903
35.884591381403105 -120.48296617284993 2.7281197881406163 -1.0012761072550713
35.88472026462735 -120.48343604025486 3.237088710058926 -1.39877980258266
35.886808829927176 -120.48529610800162 3.3472575650249947 -1.7588303991913168
35.89230519505027 -120.48586488353581 2.551352615349513 -0.5464821987323999
35.89162192329717 -120.48608229552717 3.134023721841804 -0.9217997694777578
35.88947793848019 -120.48144243667151 3.546818509128921 -1.2797947978920632
35.89309678035252 -120.48522848481996 3.8866790306704098 -1.5443543267996622
35.89051919788669 -120.48479930597546 4.6837867123738555 -1.6496287096836422
35.896663951090105 -120.48126955444744 2.787723269423893 -0.46773852909138464
35.89747710370866 -120.4850786833549 3.684805846326496 -0.857608264596825
35.8933660958583 -120.48393767135153 4.087220800016393 -1.1561234291935312
35.897222069557245 -120.48574441324814 4.739472539845963 -1.2704121337572185
35.89547398233996 -120.48510837727488 4.82817420961724 -1.163037770580485
35.90164391776436 -120.48186839787581 3.7093466408849136 -0.4668196103202053
35.89884549222763 -120.48231839830854 4.183222063934789 -0.8236438294083427
35.89779574991322 -120.48082389085386 4.413526106797516 -0.9604798629970145
35.90002533944272 -120.48228519175454 4.785489761579614 -0.8292546421256177
35.90050193875254 -120.48317030102577 5.29576872236669 -0.4838477798658993
35.904262823979 -120.48418592944633 3.7609639200870175 -0.44353022167868894
35.9027884920681 -120.4806399764125 4.642274029220332 -0.6020258872387456
35.90526933192504 -120.4849211895266 5.202967984050625 -0.4561552466325386
35.947985441333316 -120.48187880875945 3.955688755388655 -0.4480595984474142
35.94730374920615 -120.48365474823423 4.695346402602565 -0.6587052799457156
35.94792246245433 -120.48267056633779 5.1097573184027505 -0.5848446627029483
35.955956593226034 -120.4834181391224 4.097592781633813 -0.6051862431670512
35.95403101523415 -120.48594514873885 4.388697641695071 -0.7475117759435301
35.95463756710813 -120.48236664803254 4.972422605101578 -0.674679122410039
35.952211791390035 -120.48605044641513 5.495235719238785 -0.41047002675519567
35.95823837078401 -120.48161680514944 3.7397945936905517 -0.4752607553705592
35.96024700930974 -120.48143892365502 4.07229531436136 -0.6841826434011646
35.95716949262318 -120.48111886554912 4.634479008771668 -0.771229877746517
35.95753564156655 -120.48197969598131 5.050453705507089 -0.7091914301645759
35.95789101890539 -120.48126496598645 5.285306894753895 -0.5303214864273629
35.96443556941519 -120.48329455159991 3.3627478769612784 -0.5981062145210227
35.964688463594555 -120.4858862646633 3.8989812028193263 -0.757734605975883
35.96112218117973 -120.48195656787321 4.278863683381107 -0.8229367157776413
35.962494446542436 -120.48553283312424 4.803809625037478 -0.7841342180397803
35.96472093157903 -120.48178209592494 5.691533415441158 -0.6653702140589834
35.9623401711143 -120.4825191432192 6.0557042691905805 -0.5064469239145946
35.968619730516885 -120.4844371514589 3.3078521718572707 -0.7119338212784172
35.96764813036928 -120.48213738551489 3.7865785563831027 -0.8400313248497744
35.966386082362284 -120.48400851763975 4.318290365988447 -0.8993481954322532
35.968282071333135 -120.48483169860395 5.2237212917925815 -0.8833423148633048
35.96672566096102 -120.48502341800379 5.274706264829028 -0.8023975681917885
35.96665883912116 -120.48421453250901 5.78706701051302 -0.6750605071866944
35.96667574166851 -120.48514022907048 6.372380275022138 -0.5193557378985049
35.973703915993084 -120.48239594556937 3.729367366053932 -0.827774579736204
35.97413117473895 -120.48486805865136 4.1560355173099035 -0.9293289466749988
35.97076351521877 -120.48067107860449 4.7231356009660095 -0.9799898215286883
35.96993619586512 -120.48150245432342 5.206964621657222 -0.973505944994754
35.973240941352074 -120.48515650208446 5.344867747184346 -0.9109213767086212
35.97374736208482 -120.48093410032278 5.938324278718618 -0.7989478581965048
35.973227002586974 -120.48074442111073 6.57761892541195 -0.6490015816504764
35.9726008773818 -120.48461504791547 7.151983833120778 -0.4762354895096486
35.978545159822346 -120.48238694676105 3.4276454228192152 -0.9488712485754769
35.975588630120384 -120.4811608751282 4.077600766297893 -1.0233560517830398
35.975289071210646 -120.48491045050893 4.373792766252573 -1.0564163690427468
35.9751858075381 -120.48365343212852 5.240075409028121 -1.043289047110016
35.975028715386756 -120.48207376868105 5.575436570619328 -0.9821233382540244
35.97753706541174 -120.48502392961723 5.765221296061254 -0.8752314287902878
35.978435018011055 -120.48265302015444 6.515090352774459 -0.7309208224796873
35.97575912116174 -120.4829166970728 6.909350560029441 -0.5633437186664615
35.97932825216696 -120.48413897932029 3.4827003008074455 -1.0707259665061337
35.98303455759244 -120.48142546754127 3.842445968025568 -1.1175846244763843
35.982132949276604 -120.48206804088723 4.662633061764862 -1.1266458485048851
35.979674324524844 -120.48083720067474 5.223664916727019 -1.095943613979019
35.97947038723414 -120.48503088885381 5.749444172491297 -1.0250748082828651
35.98174912436308 -120.48326822276822 6.245046970326586 -0.9165820637541621
35.979691318347754 -120.48526539296725 6.3720745623010995 -0.7777260721358064
35.983999902474366 -120.48094517938178 3.802220922760549 -1.2052046840914732
35.98430545149586 -120.48083693141149 4.362888671836904 -1.189606475767961
35.985458851130254 -120.48156996539254 5.019848828634229 -1.1383588347446392
35.98627112680344 -120.48141769202826 5.417788429929215 -1.0540606191507085
35.98342326868535 -120.48433384700293 6.056333100897214 -0.9412106495965854
35.98899575654973 -120.48228107175723 4.6545722416071555 -1.2425283642611353
35.99177177924715 -120.4847935176028 4.81891302620083 -1.1742305379533944
35.988370574329196 -120.48601167042706 5.61475244722266 -1.078695395340976
35.99429288745677 -120.48235987225938 4.590459204177237 -1.2802593259753166
35.99262796096204 -120.48281678461986 5.219019041378978 -1.2017750930978182
35.99543371215758 -120.48498372725302 5.6071979744675815 -1.1003727086092683
35.997892610098255 -120.48466529823396 4.8353256877182735 -1.2156771672553643
35.87916284839174 -120.47933751370942 1.6569139317031938 -0.6975755977399781
35.87601694510802 -120.47827389382574 2.1666696182379384 -1.1514507323392138
35.877998397850945 -120.47576421599986 2.658803869584007 -1.653427425861082
35.87625578325296 -120.4786754452025 3.056105022388103 -2.162638635071763
35.87995390754491 -120.47591380936255 1.7901325594961681 -0.7445411326615577
35.882546264924216 -120.4787948215877 2.5822708641479863 -1.185168898702982
35.88366277618459 -120.47990192358095 2.9170576542502014 -1.6401394191499032
35.8811082637706 -120.47674051698722 3.4589418386981916 -2.0518211077999666
35.88446337775941 -120.47851231527265 2.4116933746664593 -0.6691214960345688
35.8885338869018 -120.47638021870627 3.1043959644234396 -1.063112358068314
35.88498007868163 -120.48041051018426 3.521946000140374 -1.4284000817147477
35.88705699952917 -120.47802461624076 3.7993684448951544 -1.6969689055674184
35.885105388131166 -120.4777275066709 4.459406141062496 -1.8080748597858147
35.89015233515023 -120.47548854122381 2.9342493466075665 -0.503349522345105
35.8917936549505 -120.47904872497857 3.278119199667309 -0.8471186175051654
35.891059014222236 -120.48050234280187 3.8409336715380955 -1.1059777354342966
35.891892583851096 -120.47982339903831 4.468593681408326 -1.2043887553778712
35.89136455010198 -120.47680021262924 4.991842341748148 -1.1044122504342864
35.896432101435614 -120.47760488438158 4.044414358610306 -0.6709644573601325
35.89341318898255 -120.47873615246388 4.666750828095138 -0.7761721294129879
35.89468245182667 -120.47761698162594 4.9344090284870985 -0.6321484464235723
35.90063498123446 -120.4779708561076 4.62728027989918 -0.5203096258361747
35.94734387762476 -120.47517447663735 4.081593084166687 -0.446919234704507
35.9488145532908 -120.47741570066266 4.355292150911394 -0.5993516690574981
35.94896340821137 -120.4754439835059 5.169993421311134 -0.5638464851254565
35.953522301050874 -120.47650926400262 3.3860649375206586 -0.4215645167937654
35.95181808256088 -120.47602082315348 4.208532051514273 -0.6607892693870593
35.955613500071635 -120.48027940490545 4.545623933863409 -0.7817750129250524
35.95274545894542 -120.47965591826801 4.752219813508415 -0.7414036516142286
35.95506968640904 -120.47829556912446 5.381991161103581 -0.5510000365351376
35.96046569997671 -120.47791774395402 3.337829961741253 -0.5886922417475625
35.95675549509124 -120.47826150885732 4.248183778690152 -0.776048225081172
35.960342052585325 -120.47763895823036 4.658941831843923 -0.8612140003472478
35.96015102748693 -120.4787517606461 5.077541836267097 -0.8225978597293043
35.95935042875522 -120.47503818501558 5.396062125384392 -0.6769246309113028
35.9566781158139 -120.47863619444435 5.920999945607402 -0.4722295813947816
35.964313526534085 -120.47503579802299 3.676933558058435 -0.7107459213332571
35.964337467736534 -120.47805652082648 3.7565034740948398 -0.8549401971648924
35.963573293429846 -120.4792397162354 4.478229983001494 -0.9166971813950019
35.9613836145972 -120.47567499667527 5.089510474542465 -0.8866664086714594
35.96407522560516 -120.47708058531094 5.740319525090193 -0.7789690181003645
35.96211715547069 -120.4805524072464 5.830632608186607 -0.6225087369116507
35.96272260363336 -120.4773706339099 6.3864610683219265 -0.4449177015342859
35.969679844340924 -120.47620323158152 3.4114511578938354 -0.8158143910472835
35.96701654874005 -120.47847287829856 4.216509440778234 -0.9286296813622371
35.965963168783425 -120.47666999443405 4.39297370819766 -0.9771950536097592
35.967904959738476 -120.47608234127391 5.071612493827984 -0.9564281574146501
35.96732607638992 -120.47990174953482 5.35821170432087 -0.874483516954977
35.965751992198776 -120.47914175621791 6.203032119329996 -0.7472528373826441
35.96738991697315 -120.47641425092253 6.455854124221276 -0.5911819814792286
35.96756843778767 -120.47769258887071 7.092424188053729 -0.41914721391134463
35.97232735072546 -120.48024932646072 3.479567290756119 -0.9168851881206704
35.97168374712596 -120.47826595839565 3.9803358086802096 -1.004706793041152
35.971984708388206 -120.47756722007696 4.687021741172151 -1.041875857029096
35.97157655485745 -120.47535970296637 4.947315789574271 -1.0245181970510868
35.97246430203788 -120.47969920388981 5.744793618876217 -0.9558307960183177
35.973040814776574 -120.47769626792743 6.2488594109925515 -0.8439759883761722
35.972216551409645 -120.47726387877607 6.63762067044461 -0.6997150121082557
35.97251278696771 -120.48009895738494 7.171211654956741 -0.534756449770668
35.97665909154586 -120.47640074101237 3.4662489855022045 -1.0173205964654868
35.97843297100975 -120.4780281838947 3.8897297349087916 -1.0821250713575317
35.97434238226728 -120.47814164623969 4.636060539342947 -1.1048055388927682
35.97468945692771 -120.47602484141558 5.138446588035211 -1.0825583596791752
35.97676473419056 -120.47936218709526 5.5520356875256445 -1.016399945535961
35.97535786235273 -120.47706224051745 5.8000400600030755 -0.9109421741894349
35.975750473075124 -120.47743139118991 6.497630801141585 -0.774178375478518
35.97443102563017 -120.47556443433368 6.98617175489949 -0.6167692430125594
35.9813303767577 -120.47562458147227 3.9714469966759545 -1.157068113717743
35.9833243352405 -120.47714546591939 4.339136377045787 -1.1621817047850431
35.98333315142889 -120.47832718888318 5.0446778307371 -1.1286638468262993
35.97963904495806 -120.47957232849987 5.479540114905691 -1.0577326557979188
35.97906966600802 -120.47864575724199 5.763886182506212 -0.9532413240163857
35.983057506293555 -120.47791127432528 6.269842556049532 -0.8219979177086966
35.985185995693385 -120.47971902968564 4.0513724913461635 -1.2244268084346246
35.986276798362425 -120.47576512121904 4.602064102731141 -1.2116123361091864
35.987507291135806 -120.48044917954805 5.106947138587435 -1.1645372493345436
35.98482625209566 -120.47563595822966 5.58532419561449 -1.0858046789736058
35.9864807588875 -120.47531274116271 5.8324803074737455 -0.9798574654135028
35.99195381686489 -120.47691925214927 4.529167737068036 -1.250452371309496
35.99001322412862 -120.47697927991392 4.96906080657412 -1.191492773900308
35.99028194058838 -120.47620153064088 5.410642200678857 -1.105713877866785
35.994163560997194 -120.47506138687598 5.125611773406096 -1.2085280495588038
35.87280499774946 -120.47208197062471 1.8768404098345504 -1.1796877835464743
35.87458189760983 -120.47259033814623 2.5867769645359973 -1.7487800829842726
35.87392214206994 -120.47153419510028 2.9080892513057823 -2.346626143484552
35.87955650713569 -120.47299113066148 1.932717307129344 -0.7965980946458378
35.8782805415103 -120.47473687785802 2.438753777045612 -1.3127725892888262
35.87760506528202 -120.46997782364575 2.9242486237978955 -1.8635585163195478
35.878036883376154 -120.47188751668187 3.518241156917737 -2.3791067656495635
35.88242528947582 -120.47147155411082 2.5978728051327513 -0.7527899590008394
35.88079885605528 -120.47264623647752 2.9986502125701198 -1.2164346985499037
35.88152021344145 -120.47391576099052 3.3350612158852826 -1.6567500178547663
35.88071545070279 -120.47237592460273 3.9289532507219045 -1.9922298944583026
35.88217784325208 -120.47028387100369 4.708676477647174 -2.1447951984324476
35.88608026194076 -120.47030086417831 2.9871352886009155 -0.4949993226551202
35.88676196259045 -120.4704540030837 3.4486255278388573 -0.8460566693319962
35.88573627730966 -120.47390343382928 3.8402496434318416 -1.11977466868819
35.886339324268654 -120.47060692405041 4.424192727917128 -1.2448855098069465
35.88758226410984 -120.47136255046227 4.893847431250377 -1.1739274480135968
35.885240764726795 -120.47341430843933 5.280834371740613 -0.9176589514403821
35.89079924025628 -120.47011111547 4.644129951013614 -0.4117870566575426
35.94828001639224 -120.47312660559766 5.0052236168875055 -0.4070793013106693
35.952945721645435 -120.46950411278718 3.9969519384419883 -0.5062606309452673
35.95523249589696 -120.47262744437272 4.428168277585273 -0.6182838578712392
35.95491082695302 -120.47077161921574 5.0199026106282725 -0.6219200260739466
35.95442581829591 -120.46989674584626 5.726980491499879 -0.5174171920992704
35.959882501850124 -120.47449025884703 3.317877688081194 -0.5262249171618171
35.95888275564151 -120.47156712128766 4.098669211723352 -0.6842701471846562
35.95881748564704 -120.47103082280988 4.6128037129513 -0.7680158935062041
35.957466963300085 -120.47335861868478 5.049232977041026 -0.7604447714474988
35.9595118420405 -120.4698711403291 5.745668200929515 -0.6664930677320826
35.95876703198939 -120.47466332175368 6.155158764054902 -0.5116436199698811
35.96361391634134 -120.47069248721927 3.6951659413671565 -0.6825878591937427
35.96149232139643 -120.47304302601519 3.8442665736195503 -0.8082465137544667
35.961772039670244 -120.47330720633343 4.667322277189909 -0.8694413524112629
35.963966358604196 -120.47161625189139 5.153165792046702 -0.8569408850614899
35.96225850355837 -120.4729278894059 5.6414186232677395 -0.7765133693125063
35.96439480877034 -120.47460416379573 6.128152657804107 -0.6455423605483234
35.961310123291945 -120.47402582121316 6.343087832404992 -0.4844029491083199
35.96795977475631 -120.4727909774672 3.3132996230832883 -0.8068821486467429
35.96891606863932 -120.47410368974968 4.014809027223025 -0.905625321671532
35.96979465998754 -120.47190669377098 4.570602956830731 -0.9503882742971042
35.968763494303836 -120.47249378779713 5.027400608246865 -0.9359499902524655
35.96765905383398 -120.47212117272107 5.619444030861958 -0.8665632815849525
35.96686978459863 -120.47485727603559 5.806767733497604 -0.7532331657992332
35.96912569327792 -120.4708771754784 6.463718528588451 -0.6091781997392585
35.969305208613385 -120.47096779815857 6.825513989098661 -0.44647509506868105
35.97016206782374 -120.47363117491868 3.6660125480868357 -0.914310846731414
35.971193347015834 -120.47298816541685 3.7767956194116317 -0.9906750353760704
35.972416667432654 -120.47067546280981 4.3877198747682495 -1.0218389261823058
35.97352877930718 -120.47058815118203 5.046950428336859 -1.0044508429701853
35.971930664633994 -120.46984604083885 5.377681450904187 -0.9409453143041447
35.97264186542378 -120.46973070148408 6.176587065895496 -0.8381207800233363
35.97311197080136 -120.47373552701063 6.607651913353522 -0.7051312777262518
35.974315595149136 -120.47026132385437 6.770659264882313 -0.5519164851543439
35.97636191760481 -120.47334691296287 3.8423219793051064 -1.0679196414013927
35.97839381239162 -120.46991995696568 4.693021501741373 -1.0854882573983657
35.97864301833179 -120.47030739603044 5.095482979742565 -1.0620283333912095
35.97512847805605 -120.46960358310797 5.444283789279811 -0.9990320039374243
35.974703939669716 -120.47248582005322 6.095411332744025 -0.901100897266807
35.977506787380285 -120.46962000787502 6.731357142575684 -0.7752483744255358
35.97624869572087 -120.47325256088371 7.082378761379896 -0.6301001374675561
35.97947043973284 -120.47241068697465 3.8397000444529907 -1.137075745324645
35.97944930236884 -120.47009282642681 4.626188082653713 -1.140400779595723
35.979198240755046 -120.47353500717135 4.937112612597254 -1.1080435101326858
35.98304171767207 -120.47218056741615 5.716276264706199 -1.0415968316722573
35.9824684342874 -120.47103831028295 6.027670198873234 -0.9449539487994545
35.9829443884202 -120.47389964123195 6.71927674822879 -0.8240989128660713
35.98560913184611 -120.47266306158107 4.365494166266544 -1.1851909299447856
35.98743889931939 -120.47005931261933 4.755299837632159 -1.1429531878943224
35.98356610328812 -120.47382091599493 5.481735366444624 -1.0713226995700333
35.985624285848694 -120.4723505851696 5.923103652954949 -0.9743187384061641
35.988229120671626 -120.47273918203976 4.674698619775901 -1.2181275230265367
35.98923241181288 -120.4713481190058 5.165116344447487 -1.1672014848384573
35.988041466137915 -120.47180761206882 5.676131422593963 -1.0908745577395342
35.9926350146151 -120.47049228587589 4.9980017155523395 -1.1802708293812785
35.86814110667783 -120.46853669359945 1.9138138609717585 -1.0534693773315622
35.86930593088122 -120.46578902357562 2.401284258477633 -1.654838731253068
35.8665465718011 -120.46549458953774 3.0309811936468303 -2.3109273766029825
35.87213865862187 -120.46453380713791 1.8640551943069317 -0.7480731541972993
35.87216989638921 -120.46568369763669 2.6169472052822287 -1.3334290790848013
35.87280211878706 -120.46930185555262 3.136200126245133 -1.9893828105892903
35.87204190947538 -120.46807188972018 3.6492111865059615 -2.6311021044873826
35.870808102242435 -120.46756813836278 3.853558011901162 -3.131790222281905
35.87758700794539 -120.46783322583741 2.7006374354378924 -0.8196735904493513
35.875886776299744 -120.46943531314533 3.0771729149191787 -1.4069141441451125
35.87714005148589 -120.46729364541602 3.4438275679261547 -1.9947722783868898
35.87700744854759 -120.46441535124646 4.170344254799127 -2.4620927233595293
35.875307980611204 -120.46674652294186 4.70525305572329 -2.6838533371681503
35.88271986783435 -120.46399149515496 3.0231347756982037 -0.6202111251245042
35.88143599990548 -120.46795556030958 3.466081133219454 -1.0923160168634043
35.88340521485477 -120.46832178780771 4.126190457431449 -1.4789105291804
35.88266970027041 -120.46651048777852 4.529893889061961 -1.6682353593027328
35.883105261456485 -120.46922724887878 5.085913149938095 -1.5912010220426058
35.88190461250683 -120.46555932558019 5.627151281590525 -1.2678404119739228
35.886238161348246 -120.46905564755436 4.497311936315984 -0.5161344413942968
35.888724196685985 -120.46458855843383 4.847198283834581 -0.46271636961770557
35.95515850897611 -120.46900831882353 4.276456827008908 -0.4635252733208272
35.9524465659446 -120.4662142062264 4.863086580634228 -0.50746099328165
35.95394643160672 -120.46786349096081 5.6731403106977565 -0.4736976380617291
35.960328274275 -120.46846403146334 3.6354662674618377 -0.41366645432044136
35.95674806316631 -120.46553059443366 4.005440261780459 -0.5489103210403458
35.956882051659946 -120.46560683406128 4.3936630160250285 -0.6354341955359191
35.956707226135464 -120.46630307385401 5.071238575112126 -0.658454591489741
35.958490262829145 -120.46657729409593 5.73978154058411 -0.61554541771619
35.9580601345194 -120.46420427870191 6.158258465899335 -0.5178944320093697
35.962902086649436 -120.46851179645665 3.625891048509648 -0.5943113111222594
35.96265389437696 -120.4660684995343 4.151100261290093 -0.7038894523594381
35.96381505609486 -120.46579334701671 4.355900900024707 -0.7672573463763284
35.96192277492538 -120.46623566010828 5.196550784139289 -0.7753217290003854
35.9634383957753 -120.46543709798938 5.395633203999377 -0.7280365246156433
35.96137776916335 -120.46473963279213 5.929470491165345 -0.6339214290642823
35.962913653515756 -120.46575588904466 6.745120251041331 -0.5062743099980119
35.96976926779098 -120.46724414672556 3.615396507298475 -0.7383451948920458
35.96540235888799 -120.46921464577828 3.8506265331493124 -0.8253272938992329
35.968107076399264 -120.46741192526954 4.2821107998569286 -0.8704083622572022
35.96679609672814 -120.46885439460176 4.968974596594528 -0.8680236385026011
35.96533155759577 -120.46444991282652 5.715814868462605 -0.8189141104958159
35.966614348203436 -120.46922907005852 5.769042739260064 -0.7292913619898739
35.96929331135082 -120.46942528317443 6.574930857134431 -0.6085731828932063
35.9678182413209 -120.46778981550169 6.916024943956463 -0.46715464382033167
35.96997161280822 -120.465648025522 3.809569198757948 -0.9245516500203181
35.973653206929775 -120.4644891526177 4.508642044130531 -0.9545369058547523
35.97074219695231 -120.46476166144099 5.245692918311819 -0.9436481227246827
35.97398416621795 -120.46907578697008 5.421188592929223 -0.8927039122672895
35.97025170373338 -120.46903762334551 6.177550014047306 -0.8062166880402398
35.97024727094824 -120.46406974800297 6.707238659274202 -0.6912009520957246
35.97232212640785 -120.46791659937269 6.7720286029709795 -0.5560059477534278
35.97622878615159 -120.46556743033953 3.942797487981374 -1.007918012167831
35.97879696678261 -120.46705814066203 4.677934139334042 -1.024361514790733
35.97623899425348 -120.46752592469127 5.206919824237286 -1.0051232182293772
35.97507203572642 -120.46713816964925 5.70950443429482 -0.951100653697002
35.97735473978049 -120.4647554430161 5.949516129537513 -0.8658482328926443
35.9787882208059 -120.46397447804333 6.629612127225332 -0.7550146384435653
35.981266710460204 -120.46643254828072 4.036805466230297 -1.0777222004891374
35.97930584139812 -120.46528827926905 4.648781185543448 -1.081485668895029
35.983056411535756 -120.46915124236357 5.161004334294434 -1.053597505302854
35.98204334795436 -120.46944649895893 5.624147884582235 -0.9953132968328724
35.980477174283315 -120.467739980656 5.941204707577105 -0.9098724650099649
35.97993167001192 -120.4676898462269 6.723884787180425 -0.8022153751227047
35.9834585693237 -120.46517113154378 4.696664846258281 -1.1260617085717755
35.98687192472395 -120.4687381226257 4.808031480814645 -1.0898144920139865
35.9867543858432 -120.46735754064025 5.532683821947266 -1.0269438778982105
35.986457164437276 -120.46490692380357 5.7669939438373135 -0.9407792391377477
35.99124901845219 -120.46790581740706 4.9505111820619065 -1.1142108289968253
35.988292056345344 -120.46793074882466 5.605480468117743 -1.0475365516606983
35.86330731512578 -120.45840401227086 2.378855616933557 -1.323763228874075
35.861895660913504 -120.45922993621231 3.157664870710557 -1.95779795309052
35.86963462968449 -120.46133803688872 1.8525685038649806 -0.5495219426464416
35.8679300762936 -120.4636254723018 2.5871778981735156 -1.1464651347805035
35.86817307236569 -120.46054989371906 2.9452129857032476 -1.8461425058125909
35.87066574376219 -120.46166358724454 3.2926459565622097 -2.5587814414315098
35.86796886892647 -120.46000642521516 4.141945147268582 -3.1294196822168927
35.87123749729129 -120.4624807948272 2.696718218037568 -0.7662270024766928
35.87291356133203 -120.45932970745376 3.018921268089807 -1.4648646145838764
35.872132285391835 -120.46202311425726 3.415557807256034 -2.2040484891486174
35.87382212481524 -120.46050460060847 4.203429865000418 -2.8119138936814383
35.87337580423205 -120.46221447873877 4.648223515576123 -3.0976905943847313
35.87956498638202 -120.46227934534326 3.245063074137202 -0.7809413707214253
35.87615247887363 -120.45835633880044 3.654818681239704 -1.4460263469827426
35.87845523390176 -120.46030003609916 3.8633244890032694 -2.0140141857617966
35.87856707399471 -120.46344223023549 4.428789633357364 -2.294170928719021
35.87808662513943 -120.46260093508812 5.224143673198964 -2.1799832424849854
35.875563295873015 -120.4598880405364 5.66229619656497 -1.7202896737914162
35.88378288269448 -120.4634236082415 4.115761798131398 -0.8181893315120172
35.880540151572625 -120.45931427208674 4.567320800765165 -1.0661045589557085
35.87986071546072 -120.46029038393219 4.76239324284043 -0.9907082176206669
35.880441541863654 -120.4592166616806 5.646753434688721 -0.6077749081944601
35.92101385620872 -120.45873776089243 4.072118623879786 -0.8090577494556254
35.923117861606414 -120.46363064178048 4.531208577941538 -0.7070690742023621
35.925395253207014 -120.46086062510739 3.3506045315098647 -0.5627265680125803
35.92740459682912 -120.45992075099872 4.180024907395242 -1.057383568045168
35.92692688893314 -120.46130917905772 4.292234420765089 -1.077035601823387
35.92713900612703 -120.46201743869028 5.242446036243918 -0.692341362005671
35.93054517576143 -120.46389636474402 3.9422222889498673 -0.6212810653911578
35.93372925599694 -120.4597513817166 4.648168729324304 -0.7934013895498877
35.930442479710855 -120.46154353382343 4.92334596283675 -0.6733701157258893
35.93590245979661 -120.45904281751928 4.687054190911219 -0.44815866348153627
35.93696096897444 -120.45997016841228 4.833035166218586 -0.486863004323517
35.948405858225456 -120.4586121796705 5.397172409601892 -0.4085337830283892
35.95564895355244 -120.46014357386431 4.631756435656927 -0.4211816428507151
35.953181797321605 -120.46292902405483 5.0630176903936945 -0.4924677164105327
35.95190846874533 -120.46138636434345 5.258795750746475 -0.5050890757325693
35.95341292398345 -120.4592674497256 6.24520668254472 -0.46434847761196757
35.95688215936778 -120.46188875981191 3.784410259957349 -0.46990305266681537
35.95747777573585 -120.46132038090494 4.3436587487284 -0.5612161337243813
35.95652380331158 -120.45940459867741 4.863599462471023 -0.6082583370836652
35.958132931497886 -120.45925792200154 5.468554243365614 -0.6048492936078402
35.959978712154914 -120.46124081442962 6.158279166143444 -0.5543735344452596
35.95692664123045 -120.46245358504197 6.669819621627728 -0.46769356261991346
35.96276810623593 -120.4621831864971 3.962858101380387 -0.6186366587318508
35.963067993739045 -120.4616765089863 4.348314806759153 -0.6860849669607982
35.96380218887919 -120.46041640463183 5.112873520775577 -0.7130198954729282
35.96341985768799 -120.46123965836486 5.556760155302216 -0.6959923743863046
35.96327792500006 -120.46181646636778 6.037091886638887 -0.6378522105922103
35.96276419227792 -120.46359914868624 6.307063924713536 -0.5464535956340277
35.96218707124641 -120.46351817209371 7.082793595081847 -0.43217870049216783
35.96552296415751 -120.46027292355214 3.820734493513711 -0.7430465161519474
35.96708599056383 -120.46030921120017 4.369444476292127 -0.7910333496027694
35.96689078113868 -120.46209996725314 5.053724657945486 -0.8022621807982487
35.968437026929855 -120.46052321725287 5.683552819982463 -0.7750104557339097
35.96920729395416 -120.45905333440554 6.195575591239599 -0.7118266484037478
35.9654477624145 -120.45921939547254 6.596143872535317 -0.6187064258863103
35.96858521783335 -120.46136231159902 6.977091092449737 -0.5037619086847867
35.973545387149606 -120.4595808051347 4.138009338879777 -0.8460643900923708
35.973953769982906 -120.46296119395778 4.374862407306769 -0.8779382194981955
35.97052548934946 -120.45852495278606 5.03759240292395 -0.8766368252799868
35.97302510701701 -120.45897504171019 5.539999996361002 -0.8414677858272525
35.97176934178069 -120.46163908425656 6.195813486867382 -0.7747520927809207
35.97160262680847 -120.46254785996969 6.381308432934752 -0.6813336638059106
35.974297333631306 -120.46081380213109 7.164683590377325 -0.5678348256295443
35.97495518660001 -120.46183279200868 3.971630218229981 -0.9312278352010502
35.97639658361472 -120.458410543833 4.294549100006747 -0.9493107695670124
35.977079217476536 -120.46139393610613 5.220726986860194 -0.937406909061862
35.978429098279726 -120.46133406110685 5.2780577861805025 -0.8955359462330831
35.97711744021276 -120.45880166097642 6.081716234644434 -0.8259356830174386
35.97833562142287 -120.46323825243961 6.440062923551456 -0.732781016364957
35.97930352902387 -120.4604185499859 4.264533042528659 -1.0066865510120278
35.98100117042289 -120.45964543385853 5.20109788545255 -0.9854625446503154
35.982098582858406 -120.46165638047913 5.740535306550149 -0.9376372280653986
35.978941636169885 -120.46103266574573 5.828671365030665 -0.8655364322880927
35.98636029893952 -120.46343451763772 4.593781348153605 -1.0506771502789927
35.9874784366702 -120.4600116961574 4.760530859398997 -1.0213971428421975
35.98588403605589 -120.46266666643042 5.691200332067365 -0.9684661614602684
35.99220858374726 -120.46289394178075 4.7986506813103285 -1.0455563916314334
35.98981529281078 -120.46083356912362 5.701049138970915 -0.988763505795127
35.86133930143788 -120.45570348141105 3.6700865566926284 -1.9121559690052152
35.863834561031084 -120.456941674987 2.497407426035852 -0.7439223661999784
35.86412865782595 -120.45477814046181 2.8992233842903827 -1.3786327050694676
35.86530737701389 -120.45384369545745 3.3672399859240123 -2.0438704145475226
35.86205830222521 -120.45581330557779 4.20336118951787 -2.588524602629104
35.86924183581706 -120.45421323977862 2.586797646809301 -0.49613557819781584
35.8686147965188 -120.45731373557847 3.000688636487914 -1.2006634849168798
35.870194343559014 -120.45375234931258 3.5278864899170803 -1.9832366645406174
35.86950146661486 -120.45787392244223 4.030511256758836 -2.6477398913888868
35.86809068812043 -120.45559671111968 4.628434960768198 -2.953226460206184
35.8679645150144 -120.45287216119804 5.225313299748078 -2.7875268507118305
35.87119719800031 -120.45291916235242 3.1349634270438815 -0.7425831738708665
35.8746212650966 -120.45797179397138 3.4904196832733065 -1.564810793520488
35.87375304946394 -120.45630513455865 3.985946256660564 -2.294336237536041
35.871753836997605 -120.45773476270294 4.55276896379342 -2.6354746103176345
35.87200880788589 -120.45465326965412 4.9867815730454215 -2.44795801813921
35.87301604938476 -120.45829844564538 5.515252630936796 -1.848113740075106
35.87714291480184 -120.45336481391853 3.4831493454701423 -0.6817023493604343
35.876028183149806 -120.45534724173979 3.891187699041415 -1.3526677832302787
35.87926190854964 -120.45738624457937 4.64749680888613 -1.6897200857084536
35.87864038090601 -120.45399542802416 4.776009020872323 -1.5365786962654202
35.877903259398614 -120.45542013566713 5.527586841350752 -0.9804237406094152
35.918921959675025 -120.45349081965541 4.071043413530311 -0.5683094346768908
35.91957982952605 -120.45682352306 4.3415901590990655 -0.6341351526943613
35.92136193829228 -120.4562095921907 3.3749632775898744 -1.1017671272367315
35.92055490498846 -120.45479752917572 4.0038810219172 -1.5980829376041554
35.92101794661505 -120.45796526859742 4.738400837904048 -1.601868226400979
35.92221289542163 -120.45532464090672 4.917445736935014 -1.1526129096389348
35.924130175444034 -120.45338879130433 5.525250721309415 -0.5034418314669018
35.927986065887154 -120.4532574765382 3.233251885521201 -0.6282492147850887
35.92516073507497 -120.45773585018382 3.2662481814191024 -1.3441179977450088
35.92483637477564 -120.45609102555669 4.161803452371958 -1.8116378663529151
35.92918921317983 -120.45728852711096 4.3111453453217585 -1.855955579997799
35.92664794861308 -120.45558770375119 5.059073141974408 -1.5084483415088201
35.92888926800803 -120.4573530920487 5.439347363901933 -0.9510202155639638
35.93357726365888 -120.45797151509785 3.028601047806621 -0.46652339711224666
35.931170213344885 -120.45719928137088 3.286424463207503 -1.0239549091450597
35.9321555244254 -120.45540283239791 3.801650930610031 -1.4288702329318201
35.93270564125775 -120.45324564834992 4.747861426683545 -1.5565083083006879
35.930226000428505 -120.45345640276291 5.059763496060351 -1.3926591292499475
35.93283596044439 -120.4546693044855 5.705203739320444 -1.0269398267508767
35.93189736084357 -120.45700609523033 6.171561682086244 -0.5962475892459782
35.93545116957404 -120.45391357798331 3.6700681151828674 -0.5836377751711798
35.937573216270984 -120.45542941166148 4.196999710322083 -0.9201483377751688
35.93535343583079 -120.45293986874316 4.262931479718958 -1.1027644116324349
35.93717550709282 -120.4551155434112 5.190041029544457 -1.09070333665618
35.93484996097994 -120.45581133854328 5.563867126330162 -0.9128357688391608
35.93427558652615 -120.45452513427625 5.909998371881555 -0.6517397638225552
35.94035498110786 -120.45519501933703 4.240846568039617 -0.5496638797815513
35.94058021810165 -120.4552964833063 4.723079468733358 -0.7439271353651877
35.942592634481656 -120.45489553171751 4.9983291520727215 -0.8158742010048593
35.941777564696366 -120.45767308765865 5.457309707777908 -0.766685866730373
35.94010005652712 -120.45615927565393 6.0408525076617865 -0.6405285803298225
35.94148910253914 -120.45353242399023 6.3078870037494585 -0.49547520162974296
35.94409697509677 -120.45542325758808 4.284921094895456 -0.5453553143060266
35.943913023785505 -120.45570169620909 4.772676607192667 -0.6476713750398405
35.94532514489313 -120.45448740221026 5.321147010491846 -0.6651759990699745
35.94672275694152 -120.45606143613166 5.876366553646583 -0.6177397798481957
35.94373956673593 -120.45761160554406 6.351058257265747 -0.5391511765359426
35.94451889532513 -120.45667301210429 6.9998739003227755 -0.4567293979210435
35.94912243130344 -120.45731819024566 4.58346599898446 -0.484624143456821
35.94746405373215 -120.45605785171438 4.964526665854869 -0.5852905111199765
35.94753810650669 -120.45647376056323 5.261916794250079 -0.624464021573973
35.95166805625839 -120.4567870135907 6.233026555363849 -0.6088423282235814
35.94862625985794 -120.45532195518598 6.557185722894703 -0.556659763405364
35.9494551574655 -120.45612354447587 7.157418456555244 -0.4863069068301809
35.95096277838596 -120.45293963373281 7.741979063006338 -0.4077318948634065
35.95609025593333 -120.45435365856461 4.519955651915359 -0.5125808158898006
35.952291668046065 -120.45563274181504 4.9426566689905505 -0.5962831501590957
35.95500210978667 -120.45305207177886 5.747130817077575 -0.6317158835702009
35.95385409064666 -120.45614612106566 6.089745333931707 -0.6199987441381388
35.954579372262415 -120.45669390878075 6.60599668563481 -0.5710318881420555
35.95443109140685 -120.45425319800762 7.171617191976597 -0.4976406624522878
35.95230702855946 -120.4582967270677 7.5151682102485164 -0.4102540761161176
35.960453210178336 -120.45370190719066 3.807592279936747 -0.4881739628301416
35.958258357354865 -120.45776004278797 4.526097538214995 -0.5834972431902596
35.96032195346956 -120.45419824828204 4.9370610716723045 -0.6455896714599991
35.95769212849332 -120.45805744160327 5.553341641510471 -0.6670179278283502
35.957695509916014 -120.45307577848021 5.963163504254443 -0.647378871798137
35.95928193404066 -120.45635400749717 6.5463035927177575 -0.5926319312656674
35.96063112076396 -120.45604825247545 6.824291344478919 -0.512206126419779
35.959597119544554 -120.45425586758182 7.292416261567091 -0.41588748719788615
35.961467449835816 -120.45797162725702 3.993148202786425 -0.5952563676387228
35.96303576609776 -120.45734495871231 4.549591772730544 -0.6672249867304544
35.9628136580224 -120.45571596595268 5.193029521001232 -0.7086107793224549
35.96500192102138 -120.45656921568633 5.482568683797281 -0.7143751114223206
35.961323144481426 -120.45586406304491 6.2218946807332225 -0.6841884606349281
35.963843534445715 -120.45385616914415 6.6887261030849965 -0.6222391316691348
35.961561837205714 -120.45394761071543 7.05574305062933 -0.5358017351876047
35.96155477209924 -120.45464288115957 7.558610078499513 -0.4334479187725415
35.96917925015699 -120.4553450342 4.190351402942902 -0.6963547237555281
35.96784897435746 -120.45468303234071 4.2776743977953195 -0.7485160739125513
35.9666785427373 -120.45715012211993 4.919668611185419 -0.7721079393169888
35.96770355279445 -120.45519285397624 5.631649589305718 -0.7639765347455618
35.96633204708732 -120.45509805974895 5.76862680908902 -0.7242667596530171
35.96597557888215 -120.45469456092411 6.341137215890745 -0.6563518833231877
35.969307342122235 -120.45420439164235 7.165553380446383 -0.5660957885010215
35.9687808729957 -120.45522501666663 7.352312075028755 -0.4607976831668436
35.974153317079896 -120.4564076349795 3.9826137804397685 -0.7857338755179094
35.97064670699567 -120.45741069298109 4.44658133140268 -0.8212379071634276
35.97347003878966 -120.45296541463912 4.900167547042554 -0.8300795433356105
35.97357068448852 -120.45497149768941 5.740812159316948 -0.8104770975391413
35.97145882563672 -120.45782500789696 5.947755481949484 -0.7630537227051367
35.973786164388365 -120.45358480973717 6.741043125213664 -0.6907959647045178
35.972664289260905 -120.45723355518012 7.06401833713996 -0.5986396205297642
35.97446164497425 -120.4536041824652 4.193444391092624 -0.8619179327082578
35.976699811145934 -120.45492719465001 4.5397371988912 -0.8833556733227714
35.97700368926 -120.45408867171199 5.203811838867326 -0.8799828709023055
35.978633622612676 -120.45520039785089 5.602608970885475 -0.8510273950119136
35.97789712795436 -120.45682460632678 5.765994940588014 -0.7975315656932338
35.97711767028617 -120.45492947007409 6.537095005429827 -0.7223119013318254
35.98244472955274 -120.45471446706316 4.513611015061854 -0.9342288675912329
35.98034453919313 -120.45613703076003 4.786522206377049 -0.9207066426563
35.979323076370875 -120.45702701920837 5.635788146409136 -0.8841466261046977
35.982777381219236 -120.45640221179221 5.753715971609393 -0.8259671540350081
35.98719781164439 -120.45760998032776 5.207591336447139 -0.9517225265126281
35.9869584183842 -120.45516067772267 5.314885618905365 -0.9091506261031103
35.86006935966112 -120.45120233827733 3.0803500582124306 -0.8013455340480158
35.85814645065321 -120.4500997647931 3.3951100359992754 -1.3432130109912381
35.8610122701636 -120.45093095221117 3.802513875941621 -1.795767500260836
35.86240395825772 -120.4487168145785 3.094174252291435 -0.6806673554959211
35.864383207767304 -120.45045126813777 3.6801941558279005 -1.3608807090979902
35.863412939921446 -120.44979251607964 4.140304981284243 -1.9520973494727385
35.865965496059204 -120.45250104881967 4.367516541625249 -2.2215125243941225
35.864397867773214 -120.44829888532001 4.95997720882947 -2.060665727284852
35.86780272203377 -120.44735428383339 3.7056397458025248 -1.1782793427582665
35.8698511928278 -120.45094135592332 4.170132778677298 -1.927661704738781
35.86718748587462 -120.44988883335091 4.514096745895701 -2.274997248267593
35.86726410749297 -120.45173828368708 5.127661841313918 -2.0374005887540303
35.86676698106864 -120.45106066900753 5.251549204983236 -1.3841609257445897
35.87200642062199 -120.44904416876784 3.7278652254672537 -0.6401910839160735
35.8744803644439 -120.4523936220212 3.9703002912520975 -1.4803897373133112
35.87216447790742 -120.45217089167566 4.379147899736757 -1.8815494390902372
35.87246925973755 -120.45166957569093 5.0297100187919055 -1.6210137572806798
35.87344834174883 -120.44903103140986 5.734334594179235 -0.903955831760911
35.876450084628104 -120.44857637993861 4.496889203921737 -0.7244250201722602
35.87596759095997 -120.45078518384746 5.131475207333244 -0.5015113045550246
35.920163243197536 -120.44831556221891 3.3744693474937484 -0.7838812436018809
35.91702000322334 -120.45032775480632 3.800386484290648 -1.145780286497897
35.918700012213506 -120.45268141272759 4.733420017361257 -1.1736145199132537
35.91682094392202 -120.45265570486407 5.0365156785107725 -0.8665407156301521
35.91878544625992 -120.44764074883196 5.466106911230893 -0.4198120129516122
35.92329499650027 -120.44993384468735 2.9384790315707185 -0.9692893535301216
35.92264067412735 -120.44957166132123 3.6277770346444718 -1.600906793453682
35.92312976217321 -120.44749917775309 3.996754919078917 -1.9945956815862889
35.92293525455285 -120.44830875770877 4.735232474888408 -2.004171272147204
35.92182172987273 -120.4496644951091 5.046596359065625 -1.6615060629618816
35.92433989088974 -120.44983207515668 5.68614369370195 -1.155144457202135
35.924769961304264 -120.45043628277448 5.853079534606993 -0.670058870040986
35.92564273484949 -120.44738221834633 2.950366455090089 -1.2356404259201115
35.92927920248881 -120.447996791178 3.267032382333542 -1.8465989699117136
35.92604909434237 -120.44873417524292 4.1565150175903 -2.231339872033336
35.92756668347231 -120.45120619961911 4.574406464531414 -2.2698920328713736
35.928250666753506 -120.44963910569352 4.948170090237801 -1.9838039112657542
35.92868948472628 -120.44851951813607 5.724742541893794 -1.5114756102551818
35.92506725444488 -120.45223309242515 5.906869593555556 -1.009352409920387
35.92773230008011 -120.44967654045989 6.557835577714799 -0.5717772699161954
35.931832972515345 -120.45006588942157 3.7455879692775107 -1.6274012519450434
35.929809804722446 -120.44869531476199 3.924395813543717 -1.9753699253564379
35.9334495698264 -120.45186154917853 4.329564824117322 -2.0664909650067256
35.93212318872333 -120.44942638769855 5.2086894786435 -1.8981236556443606
35.9307100151697 -120.4479261950546 5.5100671598809425 -1.5507286564599496
35.92962062861869 -120.44886862289276 6.128067500268157 -1.1379784520603837
35.93038450287322 -120.45214301020623 6.597270071965193 -0.7523407054106246
35.929684395613165 -120.4491699401765 7.016882467506066 -0.4391736784590538
35.937313424233416 -120.45190592782126 3.6476306188770646 -1.219116349893099
35.93569474342685 -120.45235019274311 3.7570211250708843 -1.519406686544807
35.9378432383848 -120.44880836763501 4.459864698396732 -1.655653436896039
35.93475496735471 -120.45256796017615 5.142486605546295 -1.6082292645689666
35.93725391033516 -120.44850440483647 5.558062350483822 -1.4126813934810452
35.93644659010576 -120.44880433944927 6.194092588628667 -1.139809762138773
35.93409501256653 -120.45245082547459 6.724852989547865 -0.8608415058445849
35.93639449854224 -120.45154874100797 6.920252588216138 -0.6196639235325041
35.934175381389764 -120.45080518720698 7.633039153254219 -0.42614908588492023
35.941259850896266 -120.44976503204064 3.6942000211852988 -0.8431827044409314
35.9427557869891 -120.45249893708659 3.954074340039081 -1.0956955795746364
35.93996926309826 -120.4516154611873 4.256175884738511 -1.2534249357542522
35.94101276940683 -120.45152657148037 4.818711723024045 -1.291373570508541
35.94262526679643 -120.44775609548715 5.400504748473634 -1.2186217404248423
35.938425520446486 -120.45155595183266 6.084774381335219 -1.0729148790204177
35.94092897577961 -120.45119176740154 6.381575653202948 -0.9005271337783354
35.940377150827295 -120.44936908435866 7.201574940712577 -0.7351403817585319
35.940180817440975 -120.44863174626494 7.398522655733028 -0.5883398778150254
35.93860401655821 -120.44889059120544 8.047729801604566 -0.4544142512104745
35.944434132775804 -120.44965162662885 3.5470323774792654 -0.5925253466704672
35.94290933493462 -120.44833403713582 4.156640522534431 -0.8017558184852593
35.94676540161983 -120.44996839216257 4.358521696832984 -0.958599648825624
35.94709829368501 -120.44812629765839 4.8883042191594175 -1.0399505613582516
35.94729273908091 -120.44733023076712 5.694361953450523 -1.0422722037647307
35.945890377193 -120.45057283031257 6.1623079695239085 -0.9820576236889642
35.945031706001245 -120.44843536472025 6.621133131562422 -0.8856369234853703
35.94688344404603 -120.44821936188647 6.75703675424986 -0.7757447205501824
35.94434754425151 -120.45144957476164 7.280398465831918 -0.6633418587450604
35.9465345207975 -120.45147650796086 7.886970315615793 -0.5484848183673672
35.94555355432351 -120.45268904490148 8.558934053554934 -0.4278434637464818
35.94742770686867 -120.44987655139009 4.1598386618762015 -0.6435310307729696
35.948843704811026 -120.45072503508365 4.369156523436528 -0.7853794403637953
35.94861669895527 -120.4512751995296 4.865376190466356 -0.8782443778532638
35.95040485791981 -120.45039525009369 5.309822271638613 -0.9140429151658102
35.950071307640485 -120.45099788563161 6.091100063489146 -0.8976183410069849
35.947352740842256 -120.45163241560809 6.608879243111668 -0.8424450926284451
35.94842340343261 -120.44853153039544 7.0424384128367254 -0.7631052790939875
35.95071320825831 -120.44940034871983 7.426422008730668 -0.6695035266589096
35.94953874907444 -120.44998301377746 8.02892924171924 -0.5658907766685736
35.94898346227659 -120.45093561344711 8.527812572958556 -0.4541467829068064
35.95304524699334 -120.44920357288045 4.014138898732907 -0.5887601902063558
35.956067540255596 -120.44976908736328 4.743157364642892 -0.7091866251095609
35.95529587359836 -120.44913282016225 5.066270519418028 -0.7946222888826928
35.95235216075171 -120.45227940674403 5.354124364723417 -0.8365277995395625
