> GMT_LATLONDEPTH		20	 slip
35.8766	-120.4264	8	0.003043470818284
35.8696986987106	-120.419252939218	8	0.062164745765659
35.8627973974213	-120.412105878435	8	0.112051319579269
35.8558960961319	-120.404958817653	8	0.145292438879818
35.8489947948426	-120.39781175687	8	0.156950066869896
35.8420934935532	-120.390664696088	8	0.145292438879818
35.8351921922638	-120.383517635306	8	0.112051319579269
35.8282908909745	-120.376370574523	8	0.062164745765659
35.8213895896851	-120.369223513741	8	0.003043470818284
35.876589893014	-120.426414865896	8.99999847691329	0.035333275813493
35.8696885917246	-120.419267806026	8.99999847691329	0.721703686073777
35.8627872904353	-120.412120746155	8.99999847691329	1.30086352600292
35.8558859891459	-120.404973686285	8.99999847691329	1.68677740746332
35.8489846878565	-120.397826626414	8.99999847691329	1.82211702781714
35.8420833865672	-120.390679566544	8.99999847691329	1.68677740746332
35.8351820852778	-120.383532506673	8.99999847691329	1.30086352600292
35.8282807839885	-120.376385446803	8.99999847691329	0.721703686073777
35.8213794826991	-120.369238386932	8.99999847691329	0.035333275813493
35.876579786028	-120.426429731792	9.99999695382657	0.048470228325844
35.8696784847386	-120.419282672834	9.99999695382657	0.990033945118691
35.8627771834492	-120.412135613875	9.99999695382657	1.78452607844658
35.8558758821599	-120.404988554917	9.99999695382657	2.31392318408815
35.8489745808705	-120.397841495958	9.99999695382657	2.49958223066819
35.8420732795812	-120.390694437	9.99999695382657	2.31392318408815
35.8351719782918	-120.383547378041	9.99999695382657	1.78452607844658
35.8282706770024	-120.376400319083	9.99999695382657	0.990033945118691
35.8213693757131	-120.369253260124	9.99999695382657	0.048470228325844
35.8765696790419	-120.426444597688	10.9999954307399	0.035333275813493
35.8696683777526	-120.419297539642	10.9999954307399	0.721703686073777
35.8627670764632	-120.412150481595	10.9999954307399	1.30086352600292
35.8558657751739	-120.405003423549	10.9999954307399	1.68677740746332
35.8489644738845	-120.397856365502	10.9999954307399	1.82211702781714
35.8420631725951	-120.390709307455	10.9999954307399	1.68677740746332
35.8351618713058	-120.383562249409	10.9999954307399	1.30086352600292
35.8282605700164	-120.376415191362	10.9999954307399	0.721703686073777
35.8213592687271	-120.369268133316	10.9999954307399	0.035333275813493
35.8765595720559	-120.426459463584	11.9999939076532	0.003043470818284
35.8696582707666	-120.41931240645	11.9999939076532	0.062164745765659
35.8627569694772	-120.412165349315	11.9999939076532	0.112051319579269
35.8558556681878	-120.405018292181	11.9999939076532	0.145292438879818
35.8489543668985	-120.397871235046	11.9999939076532	0.156950066869896
35.8420530656091	-120.390724177911	11.9999939076532	0.145292438879818
35.8351517643198	-120.383577120777	11.9999939076532	0.112051319579269
35.8282504630304	-120.376430063642	11.9999939076532	0.062164745765659
35.821349161741	-120.369283006508	11.9999939076532	0.003043470818284
35.9386	-120.4908	8	0.019493335322656
35.9316986987106	-120.483647336375	8	0.226308525563131
35.9247973974213	-120.476494672749	8	0.310450295184382
35.9178960961319	-120.469342009124	8	0.226308525563131
35.9109947948426	-120.462189345499	8	0.019493335322656
35.938589893014	-120.49081487755	8.99999847691329	0.226308525563131
35.9316885917246	-120.483662214839	8.99999847691329	2.62733636367673
35.9247872904353	-120.476509552129	8.99999847691329	3.60418304004444
35.9178859891459	-120.469356889418	8.99999847691329	2.62733636367673
35.9109846878565	-120.462204226708	8.99999847691329	0.226308525563131
35.938579786028	-120.4908297551	9.99999695382657	0.310450295184382
35.9316784847386	-120.483677093304	9.99999695382657	3.60418304004444
35.9247771834492	-120.476524431508	9.99999695382657	4.94422243216907
35.9178758821599	-120.469371769713	9.99999695382657	3.60418304004444
35.9109745808705	-120.462219107917	9.99999695382657	0.310450295184382
35.9385696790419	-120.49084463265	10.9999954307399	0.226308525563131
35.9316683777526	-120.483691971769	10.9999954307399	2.62733636367673
35.9247670764632	-120.476539310888	10.9999954307399	3.60418304004444
35.9178657751738	-120.469386650007	10.9999954307399	2.62733636367673
35.9109644738845	-120.462233989126	10.9999954307399	0.226308525563131
35.9385595720559	-120.4908595102	11.9999939076532	0.019493335322656
35.9316582707666	-120.483706850234	11.9999939076532	0.226308525563131
35.9247569694772	-120.476554190267	11.9999939076532	0.310450295184382
35.9178556681878	-120.469401530301	11.9999939076532	0.226308525563131
35.9109543668985	-120.462248870335	11.9999939076532	0.019493335322656
