> GMT_LATLONDEPTH
> out/cube/20240303A_EastWest/PointSource/FF_1day
61.48362534981427 -149.839824605275 51.37350760365653 0.5439573357325787
61.48104188834539 -149.83942209462086 52.2043961205084 0.5240552518446728
61.48137808994741 -149.83702506004587 52.70428937033615 0.4919647077063727
61.48202820883802 -149.84061104261335 53.11927789899677 0.45004539666548693
61.48454794581948 -149.84212893468583 53.69956345416432 0.40090730316981615
61.48516675523824 -149.84434123415033 37.42292001615528 0.400524240379505
61.486896997599686 -149.8442857077274 37.903874867918255 0.42303005498949425
61.48570674803554 -149.84201276584065 38.44958849058218 0.4436097444992303
61.485370044847464 -149.83751405830895 38.9618067593547 0.4615003499152624
61.48819075978951 -149.84124023172876 39.41218504414743 0.47588302951306066
61.48654157172504 -149.83702547714958 40.0469872122607 0.4859225408091877
61.4878685793556 -149.84255240279032 40.25630295717579 0.49082543674289575
61.487805034713865 -149.8447991385559 41.15477449068088 0.4899187563166383
61.488225094558736 -149.8416086353592 41.567156744570354 0.48274837438124824
61.48638600843078 -149.8429609915005 41.7580223132818 0.46919189852571475
61.488208234193536 -149.83681105562565 42.73450593776187 0.4495750494660797
61.48485998587776 -149.83840763205492 42.93681050757616 0.4247733494864302
61.48662160237114 -149.8363195258708 48.8621731005361 0.42091496804385836
61.48840583646673 -149.84457267052326 49.636888498140436 0.45331575016953457
61.48772813410152 -149.83671203200376 50.012975558222124 0.47895542015748643
61.48822539531615 -149.8425160288241 50.554093591099466 0.4951495593923096
61.48520594386133 -149.8442847480848 51.050897379965114 0.5002626606524074
61.48675436926748 -149.8400590452456 51.402020125906475 0.4937490190949507
61.48616860260846 -149.84487351728666 51.8170936090018 0.47604273864284385
61.48685968727889 -149.84081512544196 52.28679489523765 0.44834782968062425
61.48688016771015 -149.83824953031169 52.9382939693397 0.4123842337082255
61.49201458175554 -149.83988131283576 38.52168995827197 0.4157989136515672
61.49161540034047 -149.83775654514614 38.83774150161026 0.43233119587374136
61.489419382830356 -149.84419291226777 39.33482288640249 0.4458074031681736
61.493315439687244 -149.8420890109955 40.19758450334021 0.45555111176378354
61.491984896639174 -149.84041555810373 40.430031003702645 0.46093695943972063
61.4899047590832 -149.8414436964549 41.17982364871855 0.4614550404025246
61.49077339827367 -149.84381756567365 41.55458874161161 0.45678818552273315
61.4900425975794 -149.8387806385449 41.98587389720809 0.44689699413133155
61.49141108677043 -149.84343783322203 42.38936227393784 0.43210316797048937
61.4900701470992 -149.83952185403214 43.14685923487733 0.41315697262319656
61.49228714685019 -149.83771325067 49.100794776294876 0.4010220854125238
61.49208332442484 -149.83702683649685 49.573298222800894 0.4243454347663203
61.49320848559316 -149.83874974728081 50.052450647618436 0.44256828824236827
61.49152939388941 -149.8390552587904 50.360026612180214 0.45357059301119657
61.492244699339686 -149.84230369426442 51.05837934304678 0.4559800179735383
61.4927073448865 -149.84285792905536 51.58469297672707 0.44922802007807855
61.490987561130446 -149.84095965717015 52.24813006618594 0.43349585346376235
61.49350143798157 -149.84456781564114 52.52360647794126 0.4095814678887539
61.49457894672067 -149.83768192295034 39.04443203295035 0.40429576987189625
61.49814425622196 -149.84298088434562 39.56266504075999 0.41680974060421105
61.494710868348484 -149.84451886990533 40.07735584920261 0.42610520798366297
61.49554150477339 -149.8408795446678 40.41885271616411 0.43168962775148856
61.49412179447214 -149.83930847425424 41.168476392061436 0.43317754978356104
61.497421441796774 -149.8394689454559 41.63102783983717 0.43035079666634907
61.49483695072212 -149.83889881146112 41.78575566565685 0.4232219584540961
61.49749223282143 -149.8384914818175 42.38890785230473 0.41209342202622434
61.494334565896274 -149.838445234147 50.22670983966841 0.40887650091658223
61.498088229460144 -149.83853014423798 50.49153413815809 0.4160496246014649
61.49677382483303 -149.84329802272487 51.062257241693 0.41653577861560953
61.49618373163498 -149.84235663413338 51.49591882529009 0.4097844022901422
61.499345502411 -149.84467599260125 40.53878711186988 0.4034394491066332
61.499155690730646 -149.84568776019574 40.864805492995806 0.4055560862244333
61.499618120437 -149.84355823623363 41.70670052452557 0.4040623420920885
61.333403611121575 -149.83439049752246 51.41674680862609 0.40079755447019766
61.33273067304297 -149.83189130957763 51.78244913947413 0.41450228319750404
61.33246720196638 -149.83529866848292 52.28189655635015 0.42010179736813086
61.33492919742501 -149.82975619360246 53.07938893094265 0.41789407778432885
61.33513629979792 -149.82857547071765 53.71508094710765 0.408493997056548
61.336972862779234 -149.83181726951952 51.06350165227073 0.40651442746469385
61.33671613931885 -149.83179814930918 51.53902642680818 0.4320838972714074
61.338970908317734 -149.82985934578826 52.13087723028768 0.44802395772656106
61.33772105727945 -149.8284394661857 52.486025598875564 0.4543228346313879
61.338773591668286 -149.83537560026497 53.111093947212346 0.45144388052270135
61.33760100662916 -149.82859803096594 53.60970159315253 0.4402222131346672
61.33988695921732 -149.83047939100678 54.10668795197977 0.4217525709832336
61.34507449935329 -149.82741561099553 50.834937591836436 0.436170343876551
61.34370500817914 -149.82940246680008 51.63804118247569 0.4662411410562224
61.34468516882328 -149.82720136013313 52.143800736686224 0.48472203969049027
61.342857479727904 -149.83069836817683 52.52553159799544 0.49172937693036445
61.343663004702684 -149.8312371098736 52.99658728039551 0.4879527403012411
61.344367021369216 -149.83466404531987 53.459279487545636 0.4745139217954199
61.344208084417346 -149.82823775409406 53.92064481782492 0.45281983845547114
61.34096972315648 -149.8308666124953 54.49203085328858 0.424425228718356
61.346502340885884 -149.83240448287026 50.28110021582892 0.41949648359445424
61.34741556137247 -149.83615929830037 51.081449618117205 0.4682214968520239
61.34845534636727 -149.83403730843744 51.518325874183724 0.5035288195989902
61.34881755812576 -149.8307062013647 51.76470026835088 0.5248750452108516
61.349347442683296 -149.83467733753525 52.538083369742125 0.5325679757911822
61.345271360635834 -149.83251333411212 52.945705446538476 0.5276030020219256
61.34849515386497 -149.83317062136413 53.57089394493682 0.5114721127385534
61.34623470305849 -149.82865689064892 54.02912104437769 0.48597244541127926
61.34568069718807 -149.8310911347342 54.562031213912114 0.45303404769910693
61.348304686391444 -149.83206039111076 54.77886026009971 0.4145785620804652
61.35006303077918 -149.82746781256566 50.534185967635295 0.44511447061338627
61.353654835281034 -149.82965931788283 50.96842977534255 0.5028389219855475
61.35116173145281 -149.8334860512144 51.7012272498425 0.544205924787543
61.35029381717102 -149.833442126195 51.828724131416756 0.5687518104024812
61.3508954211499 -149.83303536142827 52.3949776529882 0.5770620564600638
61.349856301354265 -149.8295902643333 53.20531734099486 0.5705405584363884
61.3503611101916 -149.83582211076214 53.476022279395536 0.5511531560004211
61.352604504515426 -149.83306792235828 54.02125719221024 0.521180594090964
61.352315877478404 -149.82791810941566 54.37460261335717 0.4830047737984687
61.351161150003804 -149.83264032263725 55.220003445706574 0.438940762230517
61.35529770405173 -149.833602605204 50.54873524498744 0.4719038925896641
61.35844445841755 -149.82996839973526 50.83757428745298 0.5401841605267381
61.35491396056653 -149.83287179948567 51.41627650782369 0.5885159253423927
61.355150492721016 -149.8350223266983 51.7563011514863 0.6165913277548524
61.35784422458845 -149.83504778308034 52.513017258801064 0.6253887904481844
61.35847628876554 -149.82832289251306 52.785168155840424 0.6168512809806002
61.35802501920683 -149.83002983348186 53.66681271822395 0.5935450897476231
61.356915181294866 -149.83002432508192 54.083266496107576 0.5583442870931017
61.35781538613218 -149.82968691586322 54.596117211094345 0.5141688385065475
61.35418393198254 -149.833271936037 54.77301819047072 0.46378842437621215
61.35748717604765 -149.83281928862104 55.42588268746688 0.40969181237739977
61.360036425703974 -149.83332522310408 36.96165320013599 0.40143679019749756
61.3605994427612 -149.83230675737576 50.458381784833186 0.4998139977380022
61.358687501864594 -149.8299185212369 50.92169648371589 0.5803965655709584
61.36088261758093 -149.82845594766897 51.347406836777246 0.6366643408298422
61.36152965048754 -149.83077950821024 52.156482792879316 0.6685738206289387
61.3590496148115 -149.83358871218599 52.2929435817758 0.6776475051074136
61.3591919670231 -149.8326045773731 52.964697048112335 0.6665304190550781
61.3624501964655 -149.8286624267073 53.73940838898174 0.6385408971820606
61.36037335227746 -149.83108990370692 53.89849242070607 0.5972723250494388
61.36296394390536 -149.83514834539594 54.603289811232386 0.5462771353009946
61.361286869986856 -149.83155699117296 55.14726343923629 0.488842640217534
61.361242698880694 -149.83217348455506 55.382013112239854 0.4278530010874475
61.36712397938169 -149.8318739455418 36.2401319694988 0.4100625511716038
61.36631048670276 -149.83544278835603 36.2738479101977 0.4182931008987007
61.36492608099251 -149.83299737280012 36.94401726687069 0.4219065699524716
61.36640550515788 -149.8271915961522 37.73068880629777 0.41976118714902966
61.36505149350909 -149.82824466952204 38.1182963055018 0.41061026109451154
61.36591084498369 -149.8348843483958 49.79133844532932 0.406423024344804
61.36527780339788 -149.82887203630298 50.575783124084936 0.5287750386271841
61.36427886367763 -149.83178377461363 50.825071632265654 0.6235749367918884
61.36402096272262 -149.8321336308696 51.54519451113771 0.6887866601379389
61.36464789742395 -149.83252381093473 52.165751376352546 0.7247810272263215
61.36340877987578 -149.83007894536073 52.345956759938005 0.7338183041253074
61.36618948073102 -149.831239893538 53.18145890908519 0.7194444908076598
61.36478950679509 -149.8336748137476 53.310734113397565 0.6859070520236135
61.3639194661571 -149.8311940859522 53.81174635223144 0.6376592353879791
61.36382743332072 -149.83303251575867 54.674096210222295 0.5789856197402861
61.36653233356362 -149.83451058341066 54.806439544027526 0.5137527831163796
61.36716427146953 -149.83619150429453 55.46802556256445 0.44527059731707086
61.37012579919953 -149.82845059879864 35.44496843940019 0.41476874320366736
61.36897258762753 -149.82985285154805 36.211265889408736 0.42820649852477854
61.37133970522616 -149.82892374214677 36.5470934579694 0.4378840075168432
61.36960039286438 -149.82990006971053 37.117240800514544 0.4426532632407006
61.3690381893225 -149.83043481327636 37.46808229197873 0.4412035379202068
61.36862277402863 -149.83361014379466 38.18200843743358 0.4320745289976785
61.36912088715514 -149.82846458264063 38.51875395707799 0.4136883235587783
61.36951146270923 -149.83289813514415 49.90426535182511 0.41375404910996133
61.36771692620986 -149.82861701915195 50.48026207306235 0.5587006092698472
61.37145060967214 -149.83562745429438 51.135863409280184 0.6697517805482556
61.368339392267764 -149.83518287266315 51.72130479145747 0.7449044395178768
61.369686193190134 -149.8332732369502 51.87164157430982 0.7851441073578252
61.36867844994564 -149.82709716921968 52.504936754676166 0.7937103415503884
61.37104642186349 -149.8272894482359 53.21527040145485 0.7752861433233692
61.37167859560265 -149.8349154353247 53.67236911783371 0.7352485610501466
61.36872169503674 -149.8309446073797 53.771627006231256 0.6790617324188535
61.36786014198936 -149.8278991229403 54.45733266070063 0.6118426408531498
61.36788750325369 -149.83562360630054 55.06610906575331 0.5380930449093678
61.369547414182875 -149.83239141293197 55.38925200172557 0.46157007160209246
61.37388047272387 -149.82781727869624 34.90189226572814 0.41291715426287295
61.373225105911615 -149.82872192203106 35.25713836967709 0.43090152139760873
61.37383947057525 -149.8296833367086 35.960529164706266 0.44607858986416593
61.374849788891176 -149.82806453205362 36.529781188343385 0.4573672224001751
61.37376643290681 -149.83011560364753 36.93096592601221 0.46348751683547507
61.37429088039916 -149.8340881825631 37.32367055182102 0.4629530993451055
61.37348416312276 -149.83413476658473 38.1307136681522 0.4540762232803641
61.37232696573065 -149.8347459826131 38.31033920284506 0.4349927026359991
61.375899706701105 -149.83413314018065 38.99230353561461 0.4037156576718971
61.37649341490602 -149.83538708551885 49.86320274393178 0.4185856644095124
61.372695790997085 -149.83462360997683 50.34674874827552 0.589491862546841
61.37367102797362 -149.830463554931 50.78500327119374 0.7188584625477975
61.37419954418664 -149.83401146396423 51.419580937924174 0.8048680378034364
61.375189923376645 -149.83452785059555 51.88634933490369 0.8493788033893639
61.37273907652002 -149.83012013496966 52.598621375743605 0.8569007573447821
61.374136874170325 -149.82713544813163 52.902501848842704 0.8335240549951775
61.37386083844086 -149.82895815174834 53.260908087282 0.7859731246646903
61.37597911059825 -149.82970269778062 54.20294378501645 0.7208773663861978
61.37236132158255 -149.82828554135165 54.49480879766958 0.6442803001799465
61.376127769572335 -149.83339081100112 54.943899787621156 0.5613637114357649
61.372802466383476 -149.8276970537935 55.45922919196405 0.4763411002124099
61.37809177953601 -149.82726916733918 34.520596647124925 0.4049033143942943
61.37975576129714 -149.82762587942545 35.16374395779915 0.4265834285811758
61.378382993458985 -149.83242708630965 35.66501358125359 0.446420438035301
61.37795257571246 -149.8291045152261 35.81533694444426 0.4634541333872171
61.376889510210866 -149.8298042980283 36.35478319656737 0.47651131380801115
61.3778310961892 -149.83613060132464 36.86944701187094 0.48418202157060025
61.377608078313145 -149.82812332722375 37.62882916142514 0.4848021258111252
61.380000876513755 -149.82733356853063 38.033165508290466 0.47644796083131
61.379155002121756 -149.83071763615214 38.61385875722575 0.45695103618356064
61.37821506571342 -149.83063531337265 39.24220244735792 0.42394356852183035
61.37806202133277 -149.83414626163997 49.907630956642315 0.42079204002316484
61.378168952468535 -149.82912743399334 50.626299901314596 0.6210425715549506
61.377754242434584 -149.8285558999959 51.04157458423579 0.7706799444023914
61.377030676043816 -149.83316245124846 51.53664399364156 0.8682861063566802
61.380908071562295 -149.83239843434015 52.14349932605257 0.9169098951440178
61.377473970797126 -149.83442736115944 52.70844127586396 0.9226678864814947
61.37868745941085 -149.8272808033159 52.95500018805805 0.8933523107950199
61.380912356495514 -149.82783445489363 53.52779267826079 0.8372588659928153
61.37792249312027 -149.8296140180521 54.23543089833016 0.7623292140859199
61.37911244084559 -149.83004097280732 54.48446709933573 0.6756127536612552
61.379363061321676 -149.83605167533835 55.007676179776674 0.5829990603759909
61.3802761339965 -149.82755310825985 55.645020265733386 0.4891512349364116
61.38265032943065 -149.83015508536155 34.39418907470047 0.4158605604659247
61.38356377196441 -149.8288710433862 35.173604763667086 0.43935210824722876
61.381898673556 -149.8317910103006 35.32355520184572 0.4610990973094383
61.38189427095612 -149.83354550054824 35.94998936934588 0.4800860330699967
61.38197911150699 -149.83445026909456 36.34158356854455 0.4950548162610729
61.384972609215204 -149.8271624416553 37.002930331451566 0.5044715193781694
61.38170810371305 -149.8309327920331 37.3162061742672 0.506497713631277
61.38254020308879 -149.83105060160602 38.01161387762489 0.4989723413433434
61.38529301639754 -149.82946645897962 38.724180186267496 0.47941295820407626
61.38305866587682 -149.82987711145682 38.95074520932066 0.44504874412617196
61.3834900323162 -149.83335224368048 49.92737788191467 0.42051483692113223
61.38530772140016 -149.83532156456127 50.40514126323426 0.6532423331931949
61.3844662967257 -149.83060540028825 50.811010348638995 0.8247990753165461
61.38272134925098 -149.82690795980304 51.719725720939245 0.9344451176584829
61.381474599677865 -149.82978212942228 51.957780903387196 0.9867909228601689
61.38413975096073 -149.83002234246422 52.34243031098531 0.9899261355650373
61.38396528659293 -149.83572548660933 53.11387528542922 0.9536467230512436
61.38351669530147 -149.83092653063662 53.54612380946073 0.8880321514363491
61.3845671977906 -149.83243883876278 54.12110446907021 0.8024616090318276
61.38305764659745 -149.8319532963252 54.32537165138005 0.7050447671028994
61.38274896533272 -149.8271311205507 55.186823910786046 0.6023836382536011
61.38200654200296 -149.83574573631563 55.36089667999142 0.49956560073404976
61.38176838321911 -149.83354875607722 55.920544655062635 0.4002966869521407
61.38970080095481 -149.83397115940346 34.4671633031096 0.42571693397317234
61.388078736674835 -149.82704725611916 34.949797701233614 0.45101594376316945
61.38848262395563 -149.8325296351011 35.543776326639616 0.47470064641010234
61.38983752907171 -149.83188777518188 35.76271661247776 0.49570962031094584
61.387062074113985 -149.8336671644901 36.388644647824 0.5127101954408534
61.38770772871655 -149.83549221972703 37.233665917744865 0.5240551196995059
61.38923731889091 -149.8300522332971 37.29999951298374 0.5277414499083745
61.3884789825762 -149.82746381855586 38.08937680847313 0.5213777050384387
61.386259480485435 -149.83624146875283 38.394448276458505 0.5021686666490491
61.390029150309154 -149.83044082633273 38.938258492545046 0.46693160235718467
61.38963426207137 -149.83226601244613 39.59678730315067 0.412163097572059
61.38972595011019 -149.82769802331077 50.15153756363146 0.41827213564721805
61.38875164044234 -149.82894436312404 50.471295711290956 0.685972970344137
61.38740674598738 -149.83081106448606 50.927339977365634 0.8805330158246453
61.38590330959887 -149.83010124913986 51.44367815562087 1.002227259954797
61.385827473530426 -149.8293323783456 52.00091838124334 1.057630667308303
61.38908587524571 -149.82707768824022 52.41418177879364 1.0571746305108325
61.38830587248684 -149.83510995444854 52.89661883035259 1.0129389023273967
61.385779989103845 -149.82761494037703 53.55517022391475 0.9369639271019179
61.38666250002977 -149.8330873504997 54.070705248869785 0.8401526308888865
61.38970281534846 -149.83520625173284 54.61042401981518 0.7316937503993735
61.387278295507905 -149.82810480563847 55.01009397830917 0.6188781445789476
61.38596423277577 -149.8341612667138 55.470970314578985 0.5071724300309581
61.39020850467878 -149.8351426613211 55.854497848528794 0.40043563009331873
61.39263515373296 -149.82818313684967 34.14068775988781 0.4066240829342762
61.39373591813211 -149.8339530053486 34.45281537410064 0.4342995463967877
61.39157183225073 -149.82720333749162 35.07142227145779 0.4613690486888403
61.39403648233755 -149.83028046949715 35.341127176535 0.48698439292664286
61.39231344921285 -149.83132847175276 35.87015343474792 0.5100494263813686
61.390600199787535 -149.83361336592003 36.46884021954466 0.5291702215690931
61.39375728556458 -149.83231724193016 37.19201687910295 0.5426014282676499
61.3939431607548 -149.8284203343019 37.70103346809515 0.5481920777026165
61.39424046788468 -149.82898539824225 38.17164184805125 0.5433366893618249
61.39243766824149 -149.83196769615344 38.264654995676416 0.524941292632607
61.393031279288536 -149.82927999144354 38.95545706528817 0.48941914742695686
61.39067185153087 -149.82893066878037 39.729621051696604 0.43273769733772705
61.394323500294156 -149.83448483202244 50.04552545456031 0.41504823290825765
61.39128229407843 -149.8335672736931 50.34645792807396 0.7190910326566534
61.39147772628675 -149.8281859388266 51.22127218011937 0.9368687435045676
61.390271943628775 -149.83390104218307 51.446545475844964 1.0700418243085197
61.39107303920671 -149.83471618728646 51.92688262092625 1.1275443468039847
61.391703439055384 -149.8270761388743 52.65144722184149 1.1224765054532813
61.39122409676594 -149.83057771822075 52.774971109117836 1.0694216080794217
61.39286570942343 -149.829971272156 53.344646478982014 0.9824939772407975
61.39430834256708 -149.8362676464601 53.91177179481565 0.874148862903471
61.39374013387024 -149.82694583841797 54.61179609478575 0.7546276397969631
61.39113905595767 -149.83017778969838 54.761177270001326 0.6318550779683747
61.39295451392025 -149.8321011863575 55.736565240793055 0.5116132285268314
61.3990767286998 -149.82809790572628 34.18807375243785 0.41226630612835014
61.39514723337463 -149.83204783260874 34.3269054649656 0.44144658701011014
61.398185787999225 -149.8300510447478 34.91409917799165 0.4702139136353873
61.39587056140295 -149.83411742276257 35.555818618060826 0.4977137486363021
61.39570686810955 -149.83588065430098 35.96443733689195 0.5228278245050223
61.39894905940051 -149.8285936051548 36.461646279632475 0.5441168436428218
61.396802747067305 -149.8291808016715 36.80392733579099 0.5597568297440676
61.3978040961591 -149.83156226837107 37.549243490064946 0.567471881495005
61.39869237906872 -149.83301001634013 37.81571164866607 0.5644687617698224
61.396837675142 -149.8346926040264 38.69006049858665 0.5473828222180164
61.397657172837846 -149.8308010665581 38.861674020068754 0.5122506148297802
61.39844254815324 -149.83236145058981 39.45334920008521 0.45453252572013386
61.39901719885705 -149.82761049886338 50.0895903876323 0.41232309190782557
61.39673898149055 -149.82810712153656 50.51205940191189 0.7523886986381191
61.39584844873201 -149.82811087793766 50.79453270146295 0.9924106864098343
61.39565784814872 -149.83085336503785 51.27921153901005 1.1357925804838278
61.395466971640055 -149.83210376448096 51.81383840291293 1.1941532001590132
61.396867892238355 -149.83369941824537 52.35907414655183 1.1834887794879263
61.3963755869287 -149.83293378309614 52.957088866213645 1.1209996114059124
61.39591333813404 -149.82764377010048 53.28760851525533 1.0228916076564718
61.39639928516944 -149.83251997714083 54.239282671437564 0.9031262341514903
61.398034461892045 -149.82831973721736 54.33856899803078 0.772919154154639
61.39566572096245 -149.8333266979715 55.17823388000881 0.6407426843108237
61.39708462751478 -149.83368446821567 55.648458789540754 0.512615155039639
61.39923220587792 -149.8305850888661 33.860229054877145 0.4164498380303747
61.40051041222149 -149.82711877414636 34.29556401071779 0.4470135710282345
61.40300133672724 -149.8310718624187 34.82236503967113 0.47736898019891016
61.39985545963086 -149.8348666814803 35.68816768629609 0.506665177858842
61.39998129691495 -149.83402277105006 36.13818792044734 0.5337752712751608
61.3993007574427 -149.83334881581936 36.64411603001226 0.557232409783137
61.401148113252084 -149.83412756989893 37.17417532958066 0.5751570074195559
61.40329630625918 -149.82906107090992 37.41320272496608 0.5851772586887819
61.40367085323402 -149.83414589042138 37.79964593990093 0.5843477768305259
61.402690487509766 -149.82986830994605 38.67846277676651 0.5690754363396059
61.39949070454957 -149.83356835589433 39.006133028440786 0.5350678834066797
61.40065333773638 -149.82926654842367 39.57676685779485 0.47732921189654
61.401181563152925 -149.8352847420847 50.1741248722934 0.41199120250707727
61.40133220184028 -149.83164235451892 50.44209555452262 0.7855286415408449
61.400911576025095 -149.82911746513267 50.7693874648707 1.0453602967250433
61.40300195025233 -149.8338889474163 51.58831357670249 1.1969088850150824
61.401169651895444 -149.8323219582616 52.09529167242993 1.2546580458582455
61.40138562204919 -149.83108645224007 52.385910708473475 1.2375616309256567
61.400315669629926 -149.8331409834402 52.88490238679237 1.1653972415462344
61.40166883711756 -149.82941627956595 53.46989069117693 1.0563574957262771
61.40245315345213 -149.835018780329 54.174913439709954 0.9257772031444983
61.402231990572 -149.8322898722557 54.50496853958159 0.785714083475702
61.40344147593308 -149.83588581238408 54.85201033466565 0.6450737424546634
61.40315435067047 -149.83431317536915 55.64368781358701 0.5100220101555156
61.404395073488 -149.83484444065348 33.836673984143886 0.4190845331261842
61.40418033637416 -149.82990762713155 34.56321680042578 0.45087945574672994
61.406808329515655 -149.8277468097732 34.822725202243724 0.48267634103117807
61.405826300831436 -149.83264377226112 35.732100021508245 0.5136376729016473
61.404273906638316 -149.83039362578515 35.816825506184834 0.5426416532237118
61.40758916351454 -149.83365217913766 36.65098574950264 0.5682127913542299
61.404755416588024 -149.8332214373525 36.96035254608871 0.5884414112052699
61.40394078289251 -149.82714598878906 37.35229618988491 0.6008935323129321
61.40386690110108 -149.83489640862098 38.09949828391578 0.6025152331729815
61.407138104311386 -149.828607952734 38.56213547878902 0.5895399425759575
61.407209788891734 -149.83471421510808 39.152461814879565 0.5574138276104061
61.40516636023648 -149.83455038968708 39.65709839775072 0.5007642999018906
61.40455301868748 -149.83551177908348 39.99297002397439 0.4134502743422164
61.406854006718746 -149.83480278549624 49.891504646691 0.4161279809620258
61.404785995196676 -149.8345347652436 50.504966394368005 0.8179576966098373
61.406922027723496 -149.82792662169356 51.06142673293381 1.0935521230263654
61.40471378292051 -149.8279516954282 51.40761311820113 1.250467154209593
61.404697745220986 -149.83223576608714 52.188853094314986 1.3060067474969896
61.40633893409253 -149.83496199201866 52.69328140531293 1.2819179148145976
61.40403886697889 -149.8336103865343 53.22769197245946 1.2003255915394053
61.40701963517867 -149.8300544486355 53.565073501606584 1.0811643719826896
61.40618600642017 -149.8336994754087 53.98724758589825 0.9409191944226574
61.40805621581542 -149.83123251734838 54.714042844673 0.7923077166603255
61.405386213060865 -149.8341560319938 55.194690361209034 0.6445337072417759
61.40515227312201 -149.8361497285935 55.53403346284862 0.5038193669102944
61.40870805695989 -149.83107262541932 33.852714069756416 0.4201067678784575
61.4119768636155 -149.832647409055 34.32141893653825 0.452952212539986
61.41251866642392 -149.8296465730386 35.085360332195606 0.4860090581723178
61.40936837351239 -149.83416031804873 35.415523562702866 0.5184621411103876
61.41261752032705 -149.82978109290605 36.08456165052738 0.5492080318117797
61.41174488994087 -149.8358563355818 36.36536891222193 0.5767816550979997
61.408742024079906 -149.82955437577846 36.91063624011961 0.5992699684064149
61.41072523893369 -149.83627508045987 37.28211504757942 0.6142135202163599
61.4124038050201 -149.831133292558 38.13681553791239 0.6184992677580922
61.408952593416416 -149.83131237016985 38.450090128798976 0.6082523554014772
61.411251138535576 -149.8356059661231 38.755872309760306 0.5787414337982928
61.41134798810813 -149.83485495867018 39.55712925341368 0.5243225089024194
61.40913967598722 -149.83492397377907 39.875327644652266 0.43846108714633303
61.41098138317318 -149.83593854323595 50.011799662196715 0.42659854046599904
61.40876610977327 -149.82853279380353 50.70722358659089 0.8488193939126537
61.41225961648864 -149.83314994752155 51.031348666645144 1.1345693726963018
61.41186538643301 -149.82938525458957 51.55522757144861 1.2934173995632765
61.40996293418887 -149.82899654347761 52.21148691140483 1.3451592848499123
61.4090241286531 -149.82860162248176 52.707130503468655 1.3139077172362943
61.41255661645668 -149.83612653547414 53.21450125659592 1.2236989996584144
61.40831043024138 -149.83077589894296 53.64055331869427 1.0958244374184472
61.408609644954076 -149.83033279935765 54.047134775585455 0.9476129009572258
61.41148110738392 -149.8350648364401 54.7029490340659 0.7922200275266147
61.4121645367157 -149.83608791242648 55.22019669679873 0.639001265311896
61.40934228280564 -149.8290823877798 55.57851187594132 0.4941492275216745
61.417128246470945 -149.83595730922502 33.853422638424725 0.41948265862977724
61.41286708052776 -149.83544093329886 34.299703276241345 0.4531734393469339
61.41567268782602 -149.83018394596502 35.04599914492318 0.48727754956344627
61.41528643990699 -149.82776538379053 35.34413599346002 0.5210100041519763
61.41442720736837 -149.82705492560825 35.84794271559259 0.5532979203807348
61.415458458691454 -149.82947917205937 36.65312623531626 0.5827048608889349
61.413321396980834 -149.828104999986 36.797105666646054 0.6073409070975062
61.41294951701219 -149.8320216131275 37.553352600104986 0.6247587580913466
61.41506704289741 -149.82797954691276 37.97566191292056 0.6318385903402568
61.41426952214672 -149.83022232874688 38.26266795824363 0.6246686406617376
61.416015260162446 -149.82909197047908 39.09057678648494 0.5984353823808504
61.41358521410425 -149.8300207598571 39.31862938278959 0.5473478143377856
61.41442419834399 -149.83544881939878 39.92072959009531 0.4646358844817921
61.412746786342325 -149.83504356144442 50.123741764840744 0.44456896067578283
61.415021033061855 -149.83364404237113 50.32673367774704 0.8769017822569662
61.41637989232865 -149.8306933843785 51.24972383975491 1.1659496590668492
61.416705284955796 -149.82731770167103 51.367298765433134 1.3229048182988368
61.413643526158765 -149.82883335632945 52.20478158305825 1.3694278106060087
61.41642847904303 -149.8345087759889 52.61382554668108 1.3313105084187076
61.417212364964534 -149.8304567849976 52.89109538742062 1.2338742662038253
61.41559988668088 -149.83475385339665 53.38296183046162 1.0992611381437833
61.41599235798522 -149.8301599025469 53.89703480537742 0.9452734580634196
61.414497048227865 -149.83380272653304 54.48176038514488 0.785257903326285
61.41688442026246 -149.83421262803992 55.13477772238292 0.6285740682936317
61.412962952081855 -149.83006590971377 55.74461938011638 0.48131041385650986
61.418179258664345 -149.82816085542552 34.18752010717082 0.41721009552379124
61.41817803547822 -149.8277635971249 34.40551449233873 0.4515216352464561
61.4194203582236 -149.83332761990616 34.88932485783832 0.48643452040043744
61.418678490147656 -149.82779468051163 35.46928524506574 0.5212002943790532
61.4198730815456 -149.82872592597252 35.87780317075455 0.5547871507511132
61.4186926399161 -149.83560311841973 36.7123736160682 0.5858037762953263
61.41825666513914 -149.82903232154965 36.935113896799564 0.6124082157018254
61.420667701933944 -149.8342966824684 37.68104658761234 0.6322016924987434
61.42055304429372 -149.8285809426515 38.19018082345694 0.6421096382196751
61.41978588251682 -149.83434178090727 38.67712632847147 0.6382562787386048
61.419927523704764 -149.8317729089282 39.216835710655445 0.6158459369561574
61.417723333509244 -149.8303436346641 39.40136878544193 0.5690748581685706
61.41827868865889 -149.82768938420256 39.93055694364542 0.49111308385507313
61.41834419820716 -149.83065283008642 50.14216560595552 0.4700529364139831
61.41846489898651 -149.8310851820342 50.469322310426044 0.9006643069888661
61.419016433582335 -149.8332770446749 50.76984987180995 1.1854672746426067
61.41856277094841 -149.82920008961446 51.62179231839525 1.3366430293512332
61.41872196875149 -149.83029955705405 51.985216953700686 1.3768388781277359
61.42100077177166 -149.83545177126405 52.32866231617891 1.3326351956819147
61.42053408696324 -149.8361364420024 52.99988460799149 1.2298720818935878
61.41724380441953 -149.83430684245099 53.477536101602176 1.0909555787030454
61.418945096557906 -149.83032374432736 53.90614505715712 0.9337547166715623
61.420120845835605 -149.82909793648125 54.415731031011624 0.7715526517108733
61.41885764514254 -149.8355878581472 55.04261164275005 0.6135737474367019
61.42063105422165 -149.8323413211885 55.677268994998485 0.46574276960237315
61.42607027786471 -149.82699898393005 34.003169929632776 0.41331940030630615
61.42353495167447 -149.8286863944179 34.638583677503156 0.44801384234479796
61.42316984004216 -149.83507376819793 34.90952473648417 0.4834779936886159
61.42523015044513 -149.82841769322303 35.62315928722231 0.5190046038763582
61.42607797172038 -149.83559687141374 35.827714039177 0.553611419916607
61.42391188713403 -149.8347357914852 36.32257531630604 0.5859662663353119
61.423870204981064 -149.83240707568044 37.18630966853159 0.6142970896949619
61.42282383650816 -149.83348019193497 37.5774229892814 0.636286734611849
61.425153382234434 -149.82778804557864 38.09907764022793 0.6489544253913034
61.42407706620278 -149.82860309564995 38.5761950775753 0.6485298899529482
61.42277417333263 -149.82918935973782 39.088687259594614 0.630332677991928
61.42389969208026 -149.8323527700706 39.5432687628168 0.5886796470410991
61.42303136594528 -149.8275680641115 40.07752358860766 0.5168590716276861
61.42319476168484 -149.8280316819517 40.510577912484486 0.40723126060287546
61.42244988449305 -149.83054302809344 50.01137904355167 0.5016649494478524
61.42189878158437 -149.83314284176316 50.3235184462045 0.9183746826729472
61.421773398723886 -149.82971577683708 50.971627231954756 1.1914472786017405
61.42466121684228 -149.83272388916095 51.295010643000765 1.333264990050361
61.423557612132164 -149.83606919630077 51.829397478079095 1.3664426956089861
61.42183957361418 -149.83149484776754 52.29662256239968 1.317355375633008
61.42202547500117 -149.83029714550995 52.91953580232004 1.2115345745013677
61.42386045467894 -149.8319586341471 53.30322169660034 1.0710371209940757
61.42328824171322 -149.83579877238392 53.95702443992991 0.9133886999824861
61.42421316431827 -149.8285083662712 54.33297159713271 0.751563910009608
61.42541892019694 -149.82826197323865 55.175158120031554 0.594527312466003
61.426058639845955 -149.83539725451348 55.68353537523925 0.4479959007018035
61.4263965863344 -149.83538101397355 34.23077382167292 0.40787252822450515
61.43005038290035 -149.8273512045825 34.36489164275368 0.442705484752151
61.429268812988184 -149.82728014060538 35.15682873951275 0.478452141383359
61.427598587711316 -149.82908884909685 35.26902977451993 0.5144494000801934
61.4269568909093 -149.82738015297966 36.08398893701296 0.5497707633937093
61.428559978637445 -149.82856420151018 36.487462160937916 0.5831542356303996
61.426887619255325 -149.83214132615325 36.81182243538977 0.6129157537118398
61.429534364129765 -149.83060241292748 37.48883878139948 0.6368479348162293
61.42851041193972 -149.83604258401317 37.96313047729254 0.6521060599715104
61.42864480760088 -149.83476800744435 38.307883104652895 0.6550870286146294
61.429757388008795 -149.83101669196606 38.867676668507556 0.6413133782359791
61.427125830444766 -149.83042953924286 39.45331697253261 0.605344467046802
61.430291390710664 -149.83467222383132 40.23668903077317 0.5407517347758147
61.42841291454744 -149.83193652764572 40.45259569763699 0.440215423758133
61.426914944105526 -149.83083078230842 50.18929228243798 0.5367142313440281
61.42963677227862 -149.83006776936602 50.56720909922928 0.9283506884520765
61.43030533490591 -149.83435168718526 51.09577906877655 1.1830416594272855
61.429337764704435 -149.83233587872326 51.33858512134722 1.3125655740113016
61.42905971180962 -149.8326717368445 52.11537416666784 1.3384925861894759
61.42862857577114 -149.82903251478757 52.44733173441718 1.2860217928556217
61.42996482749062 -149.82995561233207 53.20904000318095 1.1795804277085629
61.42945240419493 -149.83392500743085 53.60748601483067 1.0402956762986975
61.4274604527519 -149.83132994763582 54.09853314984201 0.8849693706265439
61.42833379947203 -149.8332919603113 54.74607141561303 0.7260466845861007
61.42742316116163 -149.8284866072603 55.12548209622863 0.5721261623470552
61.430330903956516 -149.8341059560181 55.36460710149832 0.4286860221650448
61.43259850570686 -149.8331917100102 33.82131011890282 0.4009608351590807
61.43164755007868 -149.82968925571595 34.65784502587287 0.4356883764038736
61.43468346468147 -149.83189296923115 34.78876017886005 0.4714457982365355
61.43491257342191 -149.83209052621686 35.648640857813646 0.5076154461072911
61.431188805551464 -149.82767070009038 35.854841260651895 0.5433304729927958
61.43180710545501 -149.83420115731806 36.72568954481102 0.577406905500764
61.434740394032595 -149.830883955629 36.832541954507334 0.6082623397757917
61.43334192383508 -149.83360011985934 37.42366526549187 0.6338212383388804
61.435110941374546 -149.82893360560413 38.17813045159837 0.6514088860006548
61.434795507451504 -149.8345554403991 38.35344714918406 0.6576397159227156
61.43308835435709 -149.83345647987412 38.820134401220386 0.648311772970908
61.43152474763501 -149.8356224874086 39.35776782146642 0.6183284845741925
61.43332978759225 -149.83436358627247 39.82807929624686 0.5616827129892913
61.43169964190853 -149.83379795556704 40.27876172607461 0.47155688210074126
61.433194916539854 -149.82725118210237 50.02846678706517 0.5716578541444567
61.43252299723385 -149.83475951371068 50.435625346544 0.9292551394780246
61.43203369773944 -149.83507924167264 51.07071769859665 1.1603937997414657
61.432405729232705 -149.8325981405197 51.56817640328721 1.2755674552541905
61.43409079338555 -149.82810981692407 52.06406331144142 1.2944431178728257
61.43150368158524 -149.83336965398627 52.695612775333366 1.2402188562719942
61.43272361869055 -149.82812950982904 53.012172861015856 1.1355397445743698
61.433694707191876 -149.83336185861071 53.33838820002197 1.0001087855829698
61.4329974571122 -149.82845358574508 54.11234416115257 0.8496806840902008
61.435150398194075 -149.8328292444815 54.65470984317107 0.6959852881206244
61.43103183887894 -149.83468466236712 55.0505704767387 0.5471681696999802
61.43267398041897 -149.8330039182495 55.451459083980296 0.40844678010021157
61.438570474901184 -149.83598546536433 34.67658874755983 0.4270870272468074
61.439613649844595 -149.83330582655407 35.08609026297044 0.4625887460409984
61.43604008826746 -149.82873159855095 35.63449018451237 0.49863433023370557
61.43969152508705 -149.82909056202675 36.17720252884092 0.5344183149621636
61.43758375488549 -149.8348377194958 36.46533065696655 0.5688394311386515
61.43751648501956 -149.82938925770176 36.76463433172242 0.6004260171393343
61.43739238153525 -149.83029407476135 37.44919242897282 0.6272498527019188
61.43778067437328 -149.8359534181837 38.191798976295864 0.6468307294068711
61.43725743028927 -149.8295198877593 38.33383006619792 0.6560375737969047
61.43664055197861 -149.82935262257925 38.97498446357911 0.6509976074106939
61.437759628806916 -149.83448788203407 39.53868477906259 0.6270336967153656
61.436883480906666 -149.83208034654632 39.82419407231148 0.5786625236343411
61.438102393149265 -149.8352680222442 40.504013250103846 0.49970286708576694
61.43901106967182 -149.8282669996203 50.13775163230096 0.6027871077535678
61.4373973334837 -149.82863780541305 50.615269722974126 0.9203597226928666
61.437939991729614 -149.8279650642682 50.842974320405254 1.1246419264446348
61.43897426660241 -149.8295146904841 51.392022510656 1.2243872998956358
61.43648697081903 -149.83433391319235 52.21291338101107 1.236761565497125
61.43932294071811 -149.83065756861953 52.61221230395785 1.1823703039110551
61.43803699260759 -149.83179980502908 52.76029881540358 1.081578874476946
61.436041977205065 -149.82976156987425 53.728396780985676 0.9522953856616074
61.43839044593018 -149.83520795423476 53.973967989021105 0.8089805064413812
61.43756529801054 -149.83281798163316 54.31200547785686 0.6625044451827105
61.4373749492215 -149.82741457207814 54.88900114515005 0.5204914527058888
61.440564480077136 -149.82726832968004 34.33429490754374 0.41705351346329445
61.44239364997629 -149.8320128232329 35.237121760239106 0.4520460512965317
61.44186530976996 -149.83601047373452 35.68647843024156 0.4876823841854831
61.44003493894736 -149.83515322325195 36.12508064585852 0.5232182793219721
61.4437609973908 -149.83456943452364 36.34972748841778 0.5576369587963096
61.442705621132596 -149.82968685590842 36.88589310253127 0.5895822111596153
61.441419213752475 -149.83324317643127 37.38605424999175 0.6172820730381042
61.440038289617235 -149.8302898224631 38.24859636281533 0.6384657213466437
61.44285163429155 -149.82824192651304 38.310962908061704 0.6502795149732569
61.442275526372036 -149.8281898237962 39.103821761884454 0.6492133611250065
61.442348433803055 -149.83001237652934 39.373662981469145 0.6310563698355688
61.44276744010742 -149.83147595711202 40.10240632684706 0.5909117009630224
61.443949696416894 -149.82952448236068 40.27962703223614 0.5233146523318951
61.44307369682673 -149.83155690467552 41.041863206378885 0.42251421690593827
61.44212403805221 -149.82823306413468 49.940589970925075 0.6269282841388838
61.44018239026286 -149.83513044404012 50.52928454794509 0.9016961472533064
61.44087350047641 -149.8329668014494 51.1872998822167 1.0777580120128583
61.44222787820029 -149.8335100746681 51.72319475927656 1.161935295678045
61.44274843791087 -149.83160605130675 52.174892014555496 1.1685971918855973
61.43981370540656 -149.8296427975813 52.70104205934895 1.1154369223147498
61.44001276435599 -149.83590785116886 53.20478247531566 1.0202511334039503
61.44198679304988 -149.82856745082893 53.64818903962162 0.8989240092281807
61.44311267103634 -149.82734777356262 54.06264487475452 0.764460715082854
61.440124063276315 -149.8280341191323 54.47124529370957 0.6267718879946067
61.441260918259076 -149.8284711038312 54.91150618956575 0.4929096340278743
61.44762783919406 -149.83569238636318 34.564670065953436 0.4057612933723532
61.44634665981817 -149.8327228121455 35.04524730825767 0.4400109032846362
61.448174538485546 -149.83207786814143 35.303159518746654 0.4749725013615631
61.446743185302026 -149.83284468100908 36.1615247080562 0.5099614232902049
61.44444362373847 -149.83135445324575 36.59016761299281 0.5440447090134348
61.44748341516338 -149.8295979045139 37.13520230239332 0.5759824271933014
61.444785046404355 -149.8307073581806 37.681838705196775 0.6041618538316833
61.44855491352653 -149.83300699117478 37.89570974186677 0.6265274483736455
61.44755903060197 -149.83395135891953 38.41669241098737 0.6405126505157199
61.446466971997076 -149.8344462334128 38.91007823776386 0.6429842355104667
61.445663911833314 -149.83236484782185 39.30956538290293 0.6302167929726294
61.44544613532377 -149.83264978985298 39.83665017426577 0.5979241536158094
61.44829192149917 -149.83497593110926 40.52815521955124 0.5413860713774266
61.44480928696349 -149.8312122363897 41.06601028050771 0.4557207866526636
61.445203450051046 -149.83467066103375 50.07464608232624 0.6419484931666023
61.444687188199175 -149.82817359015453 50.56527933812578 0.8740522900978553
61.447235996805 -149.8276078659545 50.772360568140876 1.0222660775322945
61.44700820356918 -149.82811422985935 51.26347397217467 1.0915242635243738
61.44815753226582 -149.836006541121 51.765979496818396 1.0933864431239075
61.444765522549 -149.82856244137136 52.40940198890139 1.0425724640182896
61.445161157420635 -149.82994274195804 52.831657567285696 0.9542237151345809
61.446467336130894 -149.83459800546206 53.54166116943124 0.8421109094901315
61.446149386646155 -149.82913737085462 53.91148144097173 0.7177070613794615
61.44751822521039 -149.82948368589211 54.29422913123888 0.5899072518634912
61.44680122942973 -149.83172342009274 55.13324651720602 0.46515732772000884
61.451493699936435 -149.83452454541754 35.05584271427205 0.42669650615038285
61.45199289600498 -149.82768604424658 35.62646737329176 0.4607445354154156
61.452259335853476 -149.82808595647452 36.07483479824837 0.49491463590871804
61.45310088767064 -149.83292859468787 36.344480118388084 0.5283550550355058
61.45065648549594 -149.8294895607053 36.80203432859721 0.5599397848007732
61.449593212957296 -149.83448453423523 37.27750386732738 0.5882132835574665
61.452382787015715 -149.83540492392882 38.084211477720594 0.6113334696081667
61.45067244979539 -149.82821192264416 38.259046434218604 0.6270189760048217
61.4526818847475 -149.8327478289441 38.81724688793666 0.6325108050606921
61.45315669356959 -149.83096480103205 39.664543886048094 0.6245643224462321
61.449088699126854 -149.83555095323706 39.83584382583951 0.5994950724864423
61.45008572659126 -149.83104232539506 40.7000904876987 0.5533107582749014
61.448798439113226 -149.82969949103173 40.77343010080224 0.48197039318404855
61.45163976751819 -149.83583013329488 49.93668408565469 0.6469554572609708
61.45103230393469 -149.83013579174948 50.336181004103594 0.8388258563332278
61.450690369450534 -149.82800844297745 50.89159339614972 0.9609125510647487
61.44984834681625 -149.8306360262476 51.72720402803875 1.0164785132390053
61.45155918112513 -149.83042331661105 52.11273084738027 1.0144779720698416
61.44998560359816 -149.82897136579902 52.44593360858398 0.9668053316873568
61.449491960312116 -149.8324064358248 52.86452471707561 0.8860301430895943
61.4497505357946 -149.83575110473174 53.69658854108636 0.7838414116322173
61.45199878254112 -149.83435393083852 54.0205763112671 0.6701796124456404
61.44976988950501 -149.83387289302064 54.48053324192068 0.552909153787454
61.451202970873005 -149.83608421027384 55.05125010225424 0.4378517586203036
61.456663853234815 -149.8342001986739 34.81314027937167 0.4123276169305106
61.453692288566245 -149.83380187048013 35.471168782854015 0.4452550421977017
61.45731764752015 -149.83338799221818 35.895933511750904 0.4783682893387496
61.45394499322828 -149.82775336999944 36.510153295392 0.5108928141145991
61.45338477254572 -149.8331449223774 37.09642450021765 0.5418117571244025
61.45373076527316 -149.83149915859522 37.6984940764924 0.569820768889294
61.45754221835416 -149.83312960646464 38.021464008776654 0.5932832894548052
61.45474819587215 -149.8293356318473 38.5263172797343 0.6101920936639945
61.45729822660479 -149.8328911943331 39.09287227137675 0.6181464682052338
61.457348355506305 -149.83268062514165 39.32783951407556 0.6143591419723798
61.45386707208401 -149.83148512393578 39.77710970200932 0.5957129870340389
61.45619366278959 -149.83419505630079 40.47632588228154 0.5588939392776618
61.45668169235038 -149.83044134465456 41.14358473679149 0.5006320616962961
61.4559178383871 -149.8340389998982 41.67371053696094 0.4180841883744923
61.45622438309932 -149.83496475309744 49.28141206826447 0.434453633167454
61.45527285218157 -149.83316029904705 50.04559781002881 0.6422042528878518
61.45618549758815 -149.83249023969822 50.742163030674035 0.7977907053918815
61.4577683525808 -149.8346752469653 50.81687994227316 0.8963619086085838
61.45335050413073 -149.8283779235858 51.26668588229408 0.9398161815939658
61.454506903391135 -149.83306329650122 52.23151921896215 0.9348414151889515
61.454476125500676 -149.83217495627494 52.29428123263185 0.8907958524572158
61.455848151853964 -149.8288379628241 52.882378471250576 0.8178837764616876
61.45381385485489 -149.83472349744267 53.29204730680656 0.7258376693234834
61.45695403961401 -149.83610844860138 53.93754788830106 0.6231273885376303
61.45423797142907 -149.83467974260049 54.719480678560586 0.5166072409835665
61.457234385000476 -149.82718116626756 54.75541388554281 0.4114727634370512
61.461890168284796 -149.831732483554 35.7356793657684 0.4287671137430406
61.45870238558503 -149.83340507669925 36.0372340118834 0.46062376194019655
61.459487233482406 -149.83080618500773 36.6097330188932 0.4920000346229712
61.461026766380726 -149.8297773793768 37.15192282934552 0.5219817856153669
61.45949782858846 -149.83540754748225 37.41051379598069 0.5494070678994676
61.46127685598371 -149.82709887505433 38.051675668370464 0.5728325019470306
61.45935098693506 -149.83197396595457 38.59148998627308 0.5905073720999944
61.46089802991348 -149.8339775243894 38.98281564082634 0.6003638835679355
61.45944799919122 -149.83276034661458 39.29064272047603 0.600035783650675
61.46049900911152 -149.83246368854273 39.99490792987042 0.5869219196945431
61.459248842518875 -149.833240929608 40.48902931476067 0.5583156513307382
61.46149426746129 -149.82730631816997 41.244529181415864 0.5116238992405988
61.45974350021235 -149.83380338012893 41.404407667981374 0.4446985231561253
61.461144041741015 -149.83505333954028 49.491337789258836 0.4633453195682874
61.46073532752261 -149.83314712314657 50.14369028602246 0.6288107787515012
