> GMT_LATLONDEPTH
> out/cube/20240303A_EastWest/PointSource/FF_1day
61.356087743397396 -149.65807197963 41.01403353811674 -0.540067939617263
61.35520596222912 -149.6591382190678 41.67234541382515 -0.5740064913036239
61.35576858911388 -149.6649017014744 42.22780605560312 -0.6043541118388821
61.3546419013297 -149.66647499469283 42.528941476593886 -0.6302947241118658
61.355495958190694 -149.66643844080036 42.867899749169474 -0.651044502913832
61.35483534903547 -149.65883329915724 43.572580595742636 -0.6658824322593445
61.35763719007357 -149.66253430296607 43.97554317976816 -0.6741816751806606
61.35774681503874 -149.6623217725576 44.66407975278382 -0.6754400363576528
61.35607531988602 -149.66177843011138 44.84206486072283 -0.6693076281638711
61.356156005646255 -149.66030631062867 45.51403699028013 -0.6556098216973228
61.35483712292995 -149.660295613589 46.20466444707601 -0.6343636957312582
61.35699794469805 -149.6646502208346 46.42809177063996 -0.6057865100019785
61.35667732985823 -149.66009796757803 47.23514666451931 -0.5702952026443038
61.35771565833229 -149.6597326142766 47.32249586950142 -0.5284965031107559
61.35677238265169 -149.66121442384534 47.90938696542743 -0.4811679268722612
61.35769564772707 -149.66195771001145 48.29921166294605 -0.42923059028917976
61.36282588378014 -149.6613681299896 38.89530395460612 -0.406527269781365
61.359704335011926 -149.66146428094578 39.530439934832415 -0.4498608276170835
61.36130065287816 -149.65941508202053 39.75479622179472 -0.4927564325250376
61.36235512582253 -149.66042453887496 40.706494559233434 -0.5344659399184639
61.360799138298056 -149.6593465209606 41.036522367706254 -0.5741745525019737
61.35962161319777 -149.66072071043166 41.63832522877348 -0.6110182303429151
61.35907411340311 -149.65990630679676 41.98799079307722 -0.6441061220406831
61.36245302448999 -149.66429822432346 42.47455353234317 -0.6725476524945784
61.36118261142978 -149.66548030491393 42.76555132816069 -0.6954835019078238
61.36052369869585 -149.65979528487313 43.71624278044837 -0.7121192918135942
61.36227774208941 -149.65793933195124 43.94800436478447 -0.7217603954914702
61.361005376505965 -149.65886591276524 44.41600666308216 -0.7238459514896384
61.3595632792021 -149.6602971689 45.2435780114084 -0.7179799569513687
61.36033902291297 -149.66579319005933 45.315139695487154 -0.7039572558813888
61.362677516743 -149.665046077845 46.221906555796345 -0.681782378343521
61.36012373080215 -149.66129804635426 46.26649546034631 -0.6516795296751077
61.36015534192844 -149.6616041795358 46.79240046140508 -0.6140925526236788
61.35953235762956 -149.6664985445934 47.60511968673059 -0.569674372202696
61.360806072238276 -149.66085284262374 48.03486960070166 -0.5192661885827208
61.359944807027425 -149.6654027098862 48.64168242522297 -0.4638674688077947
61.36272905673686 -149.65787515131464 48.89180027370213 -0.4045984785380825
61.36409417904517 -149.66456186661034 38.899108954086806 -0.4278475210238611
61.36501848750649 -149.66222285095893 39.55241780702198 -0.4740924585575918
61.36443873243864 -149.66439741477086 40.141161026180846 -0.5199883635224994
61.36604933353489 -149.6622664649544 40.48848530783206 -0.5647381375884107
61.365527083642185 -149.6636690944688 41.066839686331946 -0.6074692960102033
61.36442099164246 -149.65991767827407 41.42681615296025 -0.6472522864997146
61.366445148332296 -149.66427747816596 42.04813364004798 -0.6831244293388148
61.36397221413443 -149.66502047612585 42.445901184038924 -0.7141191347367661
61.363734521145076 -149.6656688077384 42.83791539197509 -0.7392996020192419
61.36564805147153 -149.65806297610163 43.319729086706054 -0.7577957295416027
61.36605846183048 -149.6606060606718 43.92148033369407 -0.7688425001260343
61.36431331464681 -149.6584171831985 44.41879184787408 -0.7718177202038815
61.36595766484843 -149.65870014998606 44.81813860168896 -0.7662767321816881
61.363662407132445 -149.65842317015822 45.37671136279649 -0.7519816331254856
61.36477084346582 -149.65817283062543 45.76808690103475 -0.7289226855701412
61.36371761427974 -149.66176381973497 46.60211908492611 -0.6973299583178443
61.36553277431146 -149.66660974932404 46.78256453900411 -0.6576738438262422
61.36600336483578 -149.65924580822627 47.31950655125469 -0.6106538509091353
61.36461415568563 -149.6598028664359 47.90123337247297 -0.5571759502450906
61.36352013226356 -149.65923177946553 48.44293271419636 -0.4983196236680767
61.364073603555354 -149.65866598724648 48.99133052374581 -0.43529657941179917
61.37186062683391 -149.65853264364182 38.93572331233928 -0.4480000122035776
61.36954926309854 -149.66076074669724 39.48642612650369 -0.4971060028050229
61.37192902876933 -149.6588722392119 39.98245523219214 -0.5459614499494377
61.37048212475131 -149.664009349941 40.301320120223764 -0.5937214667436543
61.36959793136975 -149.65820320267804 40.761273251154826 -0.6394567223349843
61.369871675646245 -149.66571047861254 41.31243437786722 -0.6821725962604291
61.371325363743715 -149.66298168100917 41.83331080447491 -0.7208345745812264
61.36783096938186 -149.66033247233483 42.597068782397066 -0.754399570998713
61.36957092503802 -149.66082158550225 43.03786456434117 -0.7818523580202478
61.37206861747891 -149.6640294502496 43.26877847707928 -0.8022457517818735
61.371353722280844 -149.66199303029956 44.01464896943433 -0.8147426633367929
61.369555049593274 -149.6667295772349 44.49416603352574 -0.8186576872378236
61.36944179761915 -149.6617152417326 44.95617571413981 -0.8134955783925515
61.367812992669265 -149.66604777675354 45.25834260524646 -0.798983865066524
61.37066873153263 -149.65791373410414 46.001770827162005 -0.7750969738645027
61.37053425195426 -149.658938841325 46.647905976645504 -0.7420696521640897
61.370446877327495 -149.65985038027839 46.78403700295809 -0.7003981189855614
61.37048895583115 -149.66326866546615 47.4718462941164 -0.6508282410176803
61.36912858206131 -149.66304199996077 47.93721645323779 -0.5943310009054615
61.368888430446624 -149.65827682817616 48.65090743881311 -0.5320665301892218
61.371541900619626 -149.6623752193936 49.22060798012132 -0.4653388842657322
61.37430220788835 -149.6653463903035 38.53086402786213 -0.41541162848052576
61.375086008225445 -149.66118467466003 38.82147198879639 -0.46664441567685727
61.37365323171452 -149.6591499374828 39.58593051401461 -0.5185169437766763
61.375483846086844 -149.66392509253836 39.83544303200095 -0.5702453304088156
61.37510969611543 -149.66491782498596 40.39142247812624 -0.6209387980478775
61.37544122608628 -149.65795210489497 40.91526708486762 -0.6696128916396922
61.373477785476915 -149.65818938833925 41.25611368629072 -0.7152093774440286
61.3742713764966 -149.65993226202684 41.89671306817805 -0.7566230174815918
61.37544375742521 -149.66166372260338 42.621154392264295 -0.79273493733861
61.37550880556212 -149.66196007527964 42.80818348079118 -0.8224517561161478
61.37557432021065 -149.6649255601947 43.64902871500303 -0.8447490420768607
61.37603526629867 -149.66617197218105 44.21658924251521 -0.8587170658408738
61.37656234811934 -149.6578326390266 44.70494484246077 -0.8636063014031243
61.372294838296554 -149.65767200920186 45.188909045364625 -0.8588697623825623
61.373989728141616 -149.66270612196686 45.40209978170907 -0.8441991112146149
61.37414114536975 -149.65805269906463 46.097085868780056 -0.8195516153079907
61.37298954316993 -149.66147367532903 46.27833169037809 -0.7851654444102676
61.37222212782703 -149.66304519677743 46.87201505362101 -0.741561536584686
61.37603515734462 -149.66020550850993 47.73785543823878 -0.6895311941957897
61.372362806665954 -149.65974060887848 48.07280682847639 -0.6301096822305159
61.37383859423223 -149.66033850601409 48.605920624708844 -0.5645372099684616
61.37451944308979 -149.66057672503038 49.07336155788676 -0.49420970508921747
61.37243465264691 -149.66211005897773 49.530671170546164 -0.4206225756484246
61.37786546609432 -149.65922842109867 38.62672905267211 -0.4297258111914999
61.377109251179206 -149.6577339499774 39.090253031067434 -0.4834376071009877
61.37857731278369 -149.66515191391184 39.717198636540644 -0.5379352362809358
61.378205768728996 -149.66252439176446 40.00060841502221 -0.5924009209941355
61.3782926600189 -149.66144849285584 40.32348846663965 -0.6459006512466887
61.37756672234887 -149.65925863581876 41.10698459298801 -0.6973974953503587
61.38066261072729 -149.66171481416833 41.67314170920269 -0.7457721485096688
61.37931677105248 -149.66154088369444 42.038026522316464 -0.7898509833714006
61.378710556494404 -149.6596505736412 42.40793134461074 -0.8284413691332435
61.38070541765433 -149.65953137503928 43.1729931254158 -0.8603734174181117
61.38065226816752 -149.6624350697288 43.735948196664175 -0.8845466523097977
61.38059226155516 -149.66051013634197 44.19927283312761 -0.8999794278138082
61.3805689839125 -149.65929414687594 44.5802130157641 -0.9058583393109662
61.378711490892115 -149.6591156758517 44.79227915204099 -0.9015844391575706
61.378544117293906 -149.66010992782427 45.632733172247505 -0.8868128891488412
61.380426915322495 -149.65878632774965 46.1000172176568 -0.8614828052848934
61.37925961543911 -149.66258239594842 46.48106910694548 -0.825834500781774
61.37866088817087 -149.6657854071139 46.80373163100212 -0.7804121250165088
61.380253469096175 -149.66556382724977 47.26134974472588 -0.7260507362769225
61.38045211936836 -149.66540503155022 48.08865384329431 -0.6638480636062236
61.37807994925112 -149.66542085812287 48.67834042031246 -0.595122459795869
61.37778331157092 -149.6622421373234 48.77597543888519 -0.5213596797313
61.379093717256474 -149.65870022787135 49.72145569998672 -0.44415200691224954
61.382660751769436 -149.6648927983385 38.29500543750596 -0.44204232443184066
61.3817161622905 -149.66023629025108 38.827203744386075 -0.49804313674170786
61.382640120856884 -149.66118854644455 39.743167654769124 -0.554976001608129
61.381808836888545 -149.66512059182983 40.11580010936109 -0.6119923858413492
61.385344599336015 -149.66373274693376 40.355297788949684 -0.6681184592194211
61.38343069395046 -149.66551561861618 40.76869498259078 -0.7222684135664346
61.38316427551629 -149.65803964423293 41.45755009895966 -0.7732655506613847
61.38319629142679 -149.66320538453766 41.90659180915766 -0.819871485541281
61.38132399641006 -149.66115492570793 42.704779921667885 -0.8608232848733891
61.38426917184722 -149.6620630632113 43.1917395032896 -0.8948776991788292
61.383868114275984 -149.66092142597785 43.698994583283444 -0.9208609197978525
61.38469447512978 -149.66436418520487 43.985815190156615 -0.9377215560824375
61.38556894943069 -149.66275587004395 44.60810094070211 -0.9445838684576986
61.38473896378713 -149.65940106441747 44.80559143816655 -0.9407978066353764
61.38365211004933 -149.66100853457752 45.46928314109469 -0.9259821775101662
61.38301669986199 -149.66131351768675 45.78224915661329 -0.9000573767215044
61.384534683841515 -149.65788768631327 46.40672265652515 -0.8632646014079224
61.38122538337755 -149.664453412161 47.19626557465126 -0.8161693096468267
61.38486356467851 -149.66079136454593 47.34376096096058 -0.7596478284152673
61.38482307649489 -149.66151687414626 48.08590682133271 -0.6948573541122567
61.38207993354358 -149.66297604732452 48.53034123735539 -0.6231909567250705
61.38268983129589 -149.65753665073032 49.047940382056765 -0.546220451598724
61.385253921118924 -149.66216727102488 49.26887905907423 -0.465630983649716
61.38587928311145 -149.65832744119578 38.52086600935325 -0.45208682841707426
61.38703326852344 -149.6610485699625 38.78386470712801 -0.5101415925262395
61.38625497368003 -149.66211990253038 39.40240598625667 -0.5692713572225582
61.38844463792274 -149.6618547961298 40.10088976307625 -0.6286005056178974
61.38632110255451 -149.6661164319754 40.29744801451179 -0.6871195348543047
61.389707076039116 -149.65775096113674 41.220894360348794 -0.7436983047586917
61.39001918711731 -149.6585532262974 41.31120823138897 -0.7971075476121713
61.38576663778171 -149.65872193373704 42.019582941399214 -0.8460490846616574
61.389298669852444 -149.66478289230284 42.34864041136329 -0.8891946155578353
61.388627354797265 -149.66452294990668 42.863365345780416 -0.9252322522770208
61.38825334955343 -149.66333380827868 43.5932464218984 -0.9529191734202762
61.38645819522491 -149.6591704217477 43.92189995725752 -0.9711379715286822
61.38878197629843 -149.65825179319634 44.31421699657651 -0.9789535354881962
61.38742686399515 -149.6654960628592 44.96868570152101 -0.9756667638858136
61.38723933134294 -149.65922057333165 45.68424757479507 -0.9608611335404518
61.38960105336138 -149.66112683749296 46.18192762551573 -0.9344382501359171
61.387422027272876 -149.66585167990476 46.43356051552455 -0.896639005297499
61.389078297499665 -149.66522482400927 47.04661627484193 -0.8480478775076776
61.389154295961355 -149.66411712548418 47.35903662599093 -0.7895791467038521
61.38945839354661 -149.6611462898518 48.055134679312985 -0.7224452434870656
61.389299938605724 -149.66180047880277 48.32627668715791 -0.6481089509237405
61.38738746290638 -149.66604923876582 48.77472719565759 -0.5682225485343483
61.38970574768906 -149.66465487398727 49.60664284914367 -0.4845580514616034
61.392500483159864 -149.6626775355829 38.14327269879334 -0.40174324863567396
61.392813900609816 -149.65941082986004 38.403875107613715 -0.45961108897581837
61.39430032937957 -149.6597036893154 39.00753573569638 -0.5194414506470241
61.394520523850076 -149.6646955064607 39.73060628210383 -0.5804829162215371
61.392583708953715 -149.66162914158483 39.91606097305251 -0.6418369369984702
61.39322880265685 -149.6587992257417 40.739613812571825 -0.7024631749824686
61.39391021538063 -149.66490331331076 41.1545474560109 -0.7611926046654983
61.39394141292338 -149.66039323903044 41.448401951443266 -0.8167493350047668
61.394551236719 -149.65980519229154 42.23716953676938 -0.8677816758442206
61.391561070474225 -149.6663618536516 42.3931905742354 -0.9129023812347982
61.39042069741129 -149.66271223027383 43.21456401432687 -0.9507372493680368
61.39452523802948 -149.6593461326987 43.2683262983587 -0.9799804133808622
61.39068323101241 -149.66393586486413 43.99869638922478 -0.9994537897786878
61.393067459023804 -149.6651701338899 44.521238771560775 -1.0081673445262875
61.3946786049961 -149.66273673203276 44.90358478033013 -1.0053762372829826
61.393011148363826 -149.66447112489604 45.530202164776746 -0.9906305908506101
61.391905864423435 -149.6662726890595 45.7593975412124 -0.9638137091044177
61.39124005932895 -149.65830034239198 46.64191887693912 -0.9251651007673057
61.39436550805473 -149.66651131376855 46.86224163804454 -0.8752856189757502
61.390831622542144 -149.65866970430076 47.563993197781556 -0.815123355527556
61.39402219121847 -149.66630826504695 47.876440663629076 -0.7459404889955842
61.39050802766953 -149.6660104474506 48.380809768174394 -0.6692629024215069
61.39240172277201 -149.66158587119628 48.771926846592514 -0.5868158696590938
61.39415653485456 -149.65934281068806 49.65026308261312 -0.5004502567015133
61.390427775117786 -149.66476614231132 49.86189154329733 -0.41206439882788387
61.398665456115 -149.65827470179204 37.993829538296715 -0.4052145479629956
61.39818245696242 -149.66035973257834 38.65170643049746 -0.46440221032311035
61.39647522349416 -149.6595333636635 38.80927937663182 -0.5256899155570184
61.39652084438881 -149.6620395263513 39.29095370564138 -0.5883143870667621
61.39472777284297 -149.66673098522983 39.95512432433927 -0.6513587104273535
61.398172143696634 -149.65926797897436 40.73705127303399 -0.7137571648335708
61.395811960843496 -149.66429645171408 41.21055823635546 -0.7743081213402868
61.39855188715496 -149.6639793673353 41.63240663486002 -0.831696061315402
61.39879798949443 -149.6608500867982 41.908587910025076 -0.8845233229755831
61.3965680935969 -149.66102189953503 42.38208776436478 -0.9313515678079172
61.39508713654649 -149.66273674553395 43.24531038604552 -0.9707521641179955
61.398085775847086 -149.65957275692517 43.615741619172624 -1.0013637899122114
61.39760881668912 -149.65865272218622 44.12033932633102 -1.0219546277685112
61.39919453269082 -149.66222033421116 44.367480866223055 -1.0314856580463645
61.399172225635276 -149.66084550996328 45.108852784181416 -1.0291708943537878
61.39600603144423 -149.6609636266979 45.364734017380414 -1.0145300550206575
61.3987545725179 -149.6663537633961 45.757553014405985 -0.9874292231741505
61.39672348704786 -149.66199462008547 46.46399257894583 -0.9481055987208523
61.39714969482715 -149.66423013129832 46.98574365775273 -0.8971734412642013
61.397437354899 -149.66624869817662 47.572748392440296 -0.8356097234563259
61.39496412856412 -149.65825627834963 48.205089107377184 -0.7647196665759588
61.39862193082995 -149.66284369817134 48.502455680133885 -0.6860840620759981
61.39688668389114 -149.66325421055575 48.7582089043605 -0.6014918630606944
61.39775170422965 -149.6647473901521 49.43755454135018 -0.5128627755097699
61.39696725990201 -149.6642178002756 50.025281087551804 -0.42216530814408426
61.40140416813095 -149.66058835336028 37.91319147018085 -0.40611922755193275
61.39993610429518 -149.66096042482638 38.27556591635535 -0.46629128656815855
61.40291323902715 -149.6590828304482 38.88504126368727 -0.5286831828111881
61.40113179224711 -149.65801339115262 39.2779938916556 -0.5925236153476489
61.399388516198954 -149.6591323776419 39.93363908106824 -0.6568822042389147
61.40002167181107 -149.65791115029745 40.65479813664807 -0.720673822525615
61.40109350555354 -149.65818408682978 41.0021956841928 -0.7826712484623469
61.39943034183771 -149.65957766419177 41.57676534132336 -0.841527269798613
61.40366361067733 -149.66552557387095 41.95317354350821 -0.8958069341573804
61.4005017423539 -149.66123525107238 42.25906379517319 -0.9440299801936036
61.40234804135208 -149.65846944684517 43.052075841757784 -0.9847226799294673
61.4027125296875 -149.663287692624 43.61430054880584 -1.016477366980747
61.40012778112861 -149.6576396872974 43.90413929691359 -1.0380169492591718
61.40095893441322 -149.6640410385668 44.325091238419 -1.048260780810222
61.40046549723523 -149.65849203253782 45.239537269313615 -1.0463875555687394
61.40201597722177 -149.66549306214915 45.57108783135632 -1.0318904911841253
61.403261463468674 -149.660341799942 45.83905469690196 -1.0046201267808736
61.399376884815574 -149.66390055262784 46.44267729962022 -0.9648106017140137
61.40028446791359 -149.65949004845302 47.15657381323376 -0.9130863412622697
61.400090001786594 -149.65796682369108 47.72249146053439 -0.850447547301906
61.40241051974785 -149.66076564496743 47.95919921569048 -0.7782346452023884
61.40232730862166 -149.6580170699556 48.55153423112138 -0.6980736630080183
61.399979913297585 -149.66432192619592 49.2188896956153 -0.611806191884498
61.400966503701994 -149.65873477441653 49.52636354878398 -0.5214088898806748
61.40369128828278 -149.65883928766584 50.223535693722376 -0.4289082702784146
61.405697622563615 -149.66304185161687 38.13277707444753 -0.4043651097007186
61.40581118213774 -149.66423820233106 38.545797547790194 -0.465160986990689
61.40789755035867 -149.65948944035424 38.91204898066507 -0.5282755377253031
61.40473924934887 -149.6595258218937 39.31453885263535 -0.5929333712474028
61.404957881991194 -149.66360554843558 40.20130288969563 -0.6581957863592203
61.40760395589763 -149.66555213257521 40.46091857936544 -0.7229646390059159
61.40477733955177 -149.66586620633043 40.90198032510256 -0.7859947202735946
61.40433439256847 -149.66532731982088 41.2920478134772 -0.8459158469990543
61.404973759511 -149.6622491568087 42.20044301360405 -0.9012654277909016
61.40496304811034 -149.65794686712766 42.38097656689952 -0.9505315879735776
61.40728268792883 -149.6574892798765 43.22437870338802 -0.9922061061188396
61.40725080351486 -149.66640673333202 43.46708808928789 -1.0248454278142882
61.40733161792294 -149.66373619972765 43.813776196936814 -1.047136998852347
61.404182850128606 -149.66393749545887 44.6839729919263 -1.0579671878404586
61.40797969252405 -149.6593347381619 45.12663129995447 -1.0564863161101135
61.40407077900802 -149.6644287564255 45.56374722385298 -1.0421658855636184
61.4038526134281 -149.66328280091952 45.85673950463634 -1.0148431277114163
61.40513154803439 -149.6666539601974 46.38635938193243 -0.9747485587981555
61.40597950849765 -149.66363335693552 46.992551077881394 -0.9225133123468812
61.40458553273731 -149.66430477796973 47.602645719575946 -0.8591545469469528
61.40482996822679 -149.6657955484114 47.82403480706974 -0.7860390609479238
61.40532386776922 -149.6647561778261 48.3701261684681 -0.7048271442599907
61.40479008472653 -149.66070989795674 48.8543270268517 -0.6174004511692788
61.40636976995702 -149.65810197366162 49.343802637880366 -0.5257790474896529
61.40466382763724 -149.6608561192627 49.897615291382735 -0.4320336001453938
61.408536300890525 -149.6616529297576 38.47409356393788 -0.46095159121417983
61.4091369919464 -149.66585999257094 39.19625245211654 -0.5243867135741374
61.40936786957028 -149.665550088043 39.48585556675626 -0.5894401960935807
61.409242356252136 -149.664079611975 39.806664613580885 -0.6551703099773661
61.41087373584778 -149.66487038122247 40.46440978726864 -0.7204725689672077
61.40872202338927 -149.65817939043302 40.95325430727827 -0.784091819658443
61.41216058060061 -149.66276459545034 41.296753864343046 -0.8446442302085888
61.40839198086732 -149.66361214319775 41.78570872082965 -0.9006499810859103
61.410347379537725 -149.6579021657673 42.550504218495895 -0.9505767979621397
61.41232605782282 -149.66586662690037 43.23174964735963 -0.992893590920982
61.40945989899963 -149.66404359063986 43.356046297506616 -1.0261324723403888
61.40827417041415 -149.66268272647872 43.770652232486846 -1.048956353426327
61.41062818340507 -149.6624374293553 44.51187141738407 -1.0602283252026399
61.410401450938075 -149.6605255351759 45.15171711954169 -1.0590782304368882
61.411486939699294 -149.661486350488 45.43178986759614 -1.0449613898210042
61.41099347131021 -149.6635607994954 46.023334185917356 -1.0177044556319985
61.41164342312717 -149.6658990774816 46.52676486040149 -0.9775339432888247
61.41118577907673 -149.66550084702675 46.958639078131704 -0.9250840841527075
61.41078181540777 -149.6667521091634 47.51639079387628 -0.8613822334852677
61.408889306312126 -149.66604151489005 47.93701731948026 -0.7878119298881736
61.4117778589266 -149.6602931151421 48.26496405154292 -0.7060556893661294
61.40886640939207 -149.66107937453285 48.92875682311711 -0.6180214046377811
61.409518778018274 -149.65800525138079 49.325335998466805 -0.5257576492394684
61.41004785103432 -149.65743448247153 49.842408186140844 -0.4313640242162294
61.415526883487615 -149.6619804829184 38.588112858821795 -0.45366506128887035
61.416281854253754 -149.66595570248288 38.99321998162591 -0.5170069979765164
61.41335298239442 -149.65868249048492 39.292615677961365 -0.5820206906780805
61.41425554108508 -149.66394561477924 40.025775540789006 -0.6477667272624641
61.41676488604104 -149.65877301016488 40.29807713933566 -0.7131411022856571
61.41443292095518 -149.664959922044 40.968233522248276 -0.7768870235000007
61.414352333495316 -149.66040283296823 41.515398253088456 -0.8376167129852484
61.41385698864134 -149.65808387880006 41.85466820578703 -0.8938440426238963
61.41336785836672 -149.66069630988179 42.73892414253311 -0.9440281737918574
61.41472443470217 -149.66282313851747 43.00481067762626 -0.9866274931175102
61.41363548150659 -149.65800605297906 43.65425857017017 -1.0201621202055906
61.41683339693622 -149.66265837521289 43.82087634841727 -1.0432821737768612
61.41564270032331 -149.65764704316268 44.59842288666862 -1.0548379631168736
61.415524539024425 -149.663142453138 44.92265758831009 -1.0539474565698255
61.413196896266015 -149.6583907823193 45.68893482950756 -1.0400559014059074
61.41657629670357 -149.66617317259437 46.19201135253085 -1.0129824895717292
61.41589020673405 -149.65976765109227 46.68784904767657 -0.9729495200553941
61.4159366485383 -149.6666655749011 46.81982546977381 -0.9205906320919013
61.41425971754404 -149.65752496393333 47.592068172977825 -0.8569362825172642
61.41420245471928 -149.6619121102306 47.79086049414819 -0.7833765557013275
61.41339981082879 -149.6577485100341 48.73154300227381 -0.7016034002632151
61.41517693086154 -149.66627181008496 49.095495536928524 -0.6135362262599869
61.414174992642046 -149.65745100866067 49.55854930565924 -0.5212362442394787
61.41604875100122 -149.66157439851048 49.80632955356134 -0.42681578822855104
61.41766637824276 -149.6619306392985 38.68198135451705 -0.4433668336410055
61.41846475847821 -149.66124710095215 39.08949161323215 -0.5061996955332633
61.41988979796508 -149.66229527412605 39.61666677289454 -0.5707347605708252
61.41863388329743 -149.6627259883015 40.17893645717945 -0.6360402304111448
61.41781033765512 -149.66656185141855 40.68823152638474 -0.7010194100548444
61.41766940461194 -149.65888410812605 40.86076297468187 -0.7644222476097455
61.42110497403436 -149.6581155503482 41.52306398177958 -0.8248668713868185
61.417517256821874 -149.666748807213 41.959298258671545 -0.8808719888657283
61.421538604473035 -149.66035921226316 42.66875206240053 -0.9309003385904404
61.42154442057161 -149.65853336785872 42.955887049754374 -0.9734125036981414
61.41994547283868 -149.66592005548932 43.315778392350055 -1.0069293805858475
61.42004241912524 -149.65849945995484 43.835774743007924 -1.0301004958304965
61.41921793356871 -149.65993962103684 44.42067269314121 -1.0417743341638979
61.42153623566279 -149.66307879258565 44.973366787990294 -1.0410660188169707
61.42168900682955 -149.6655803346627 45.40433384909637 -1.0274171913489303
61.41850952513322 -149.6657440274484 46.18802087864719 -1.0006429594711825
61.41925818590096 -149.66603965357356 46.40213088586499 -0.960961323626323
61.418045175272766 -149.6646343405142 46.87407160174554 -0.9090016269647669
61.42170401534173 -149.66361265561548 47.74860209901161 -0.8457901785794859
61.4185663821712 -149.66003060656286 48.23463448452767 -0.772713120626711
61.42164741030163 -149.66637059234972 48.483542169254164 -0.6914586356558783
61.419589619478934 -149.65972214784972 48.792053302527 -0.6039424432714019
61.42084709293106 -149.66462496193216 49.267670618881695 -0.5122219918641678
61.418756955194475 -149.6578592574634 50.194640670997245 -0.41840561918399993
61.42340483605483 -149.6640296969726 38.3021725174191 -0.4301851390426448
61.423534418783 -149.6653879807008 38.88199108306554 -0.4921006956741821
61.423900019627155 -149.66415102288545 39.37636008330842 -0.5557255028432108
61.42309152342102 -149.6606912205003 40.160830258524726 -0.6201405297401862
61.4253647309804 -149.6574738014357 40.731969267281876 -0.6842630886527717
61.42580918398224 -149.6658192507648 41.0524495373249 -0.7468581272876988
61.422385916946034 -149.66452184007738 41.641162152299906 -0.806559437119707
61.42552935761625 -149.66198171059457 42.10044851851958 -0.8619016405478475
61.426049694853596 -149.6602064742051 42.67233860715501 -0.9113631625287172
61.42337609092483 -149.65745225339182 42.984115598097986 -0.9534195087318179
61.425863147802886 -149.66534516741626 43.25868197855664 -0.9866051648596729
61.422544146714024 -149.66111279216636 44.087850393222105 -1.0095813393505968
61.424226460324626 -149.66656626064167 44.599280742013036 -1.0212057500964418
61.42616709593417 -149.66121119326024 45.2274838725158 -1.020599818406567
61.42343100526823 -149.6640678313417 45.35932500628748 -1.007208166431802
61.42534035257716 -149.66676880113374 46.05791889255316 -0.9808453015241012
61.423089437227645 -149.66340132071582 46.39317883774071 -0.941724930807019
61.423665987699664 -149.6607126794894 47.212793516154555 -0.8904684606425458
61.424683224453794 -149.66581500693906 47.338228685092616 -0.8280908316398458
61.42292383329051 -149.6574526236551 47.9827350494783 -0.7559637543336969
61.42591711419392 -149.6657444129411 48.657051445863175 -0.675758420736997
61.42603126897543 -149.6634759047045 48.99306098820584 -0.589371609713664
61.425367834188194 -149.6626025894418 49.3824624250352 -0.4988405611179509
61.424316820041874 -149.65858466380365 49.85204383294943 -0.40625284762679836
61.43057286714252 -149.6629118109715 38.510005761265546 -0.41430781815390993
61.430634947508906 -149.6637888902982 38.928075672315074 -0.4749150891160573
61.430528671740454 -149.65977870826362 39.435883124180904 -0.5372156423609132
61.43014039197019 -149.66360260268505 40.01465346990457 -0.6003081368885612
61.42796529384141 -149.66159006578414 40.685185520858674 -0.6631303184227747
61.42851723613753 -149.66032435866487 41.17816042752652 -0.7244700883501523
61.42820903039628 -149.6580968856523 41.46997752725872 -0.782986320134967
61.42817789898631 -149.66597590623508 42.16828562488247 -0.8372402734909515
61.42653876524263 -149.659750025209 42.406788423376646 -0.88573780061123
61.42643624432796 -149.66506809914088 42.978024619062964 -0.9269816882681913
61.42693037915266 -149.66356742431776 43.60731601432391 -0.9595324724927198
61.43068946061421 -149.66332164875996 43.78646102202315 -0.9820750027648694
61.428044249976644 -149.66417124181444 44.718780516593256 -0.9934870150668692
61.429328990611516 -149.65963417024417 44.914098391084536 -0.9929051669889826
61.428719013420206 -149.6636734358835 45.25283679396243 -0.9797835130744696
61.42759937374635 -149.658262432955 45.78783029683425 -0.9539393960567721
61.42764217257581 -149.6665551302778 46.25101009451931 -0.9155822764941314
61.43038139636155 -149.66102374162958 46.7832943491034 -0.8653221127467582
61.42880703505999 -149.6582140840882 47.55482870793426 -0.80415547356402
61.42979787188231 -149.65893574276447 47.831166732188464 -0.7334294443083031
61.426959937098346 -149.66484206121083 48.356062405343195 -0.6547853607134415
61.426262083236765 -149.65755120662254 49.046509710833156 -0.5700862226650086
61.428589380974856 -149.66336921004532 49.2907623888229 -0.48133305733754395
61.431372344339444 -149.66495694956234 39.12800510878111 -0.45491095717710023
61.43406272251984 -149.66291865233367 39.47970733560307 -0.5155006488459515
61.43420018179498 -149.65842192084307 40.052434784154975 -0.5768667855947518
61.43276123122859 -149.66288153655347 40.378013506475845 -0.6379735747507224
61.43282024907753 -149.6623383830632 40.9210900952257 -0.697639343602007
61.43091432231075 -149.66289916674515 41.53958200947909 -0.7545569047895947
61.431677606428465 -149.66259029519506 42.16747080158468 -0.8073242414648966
61.431402835458485 -149.6654546119202 42.671813458457756 -0.8544856841104124
61.43257044478342 -149.66482077324568 43.20010506761257 -0.8945829365762716
61.43450492397511 -149.6609619548818 43.352407221155254 -0.9262143227393396
61.43512741980371 -149.66033521518338 44.1235527749421 -0.9480995952771846
61.43176669482557 -149.66169443542623 44.45767900192369 -0.9591466702600894
61.43179250582731 -149.66638298578923 45.03045597916153 -0.9585158612994279
61.43457271909454 -149.659508308449 45.258971874218965 -0.945676732675026
61.43387805940386 -149.65889255210027 45.78888884233156 -0.9204526976320798
61.432061012547685 -149.6629979714566 46.37801985030855 -0.8830490091070855
61.43193592991792 -149.66539800625617 46.81066182667327 -0.8340608635249102
61.43290324598921 -149.66215453052502 47.35373379069655 -0.774459849910801
61.4330919112896 -149.65805769202362 48.10230812785674 -0.7055588127144392
61.43395394326084 -149.65913314957717 48.741731581576424 -0.628957099140408
61.43080914540919 -149.66573529315403 48.889442959540524 -0.5464699354655596
61.43428229745547 -149.6622181163015 49.67878505780749 -0.4600470468940413
61.43723165726447 -149.65902683911372 38.81044586463936 -0.43241065590495675
61.438691164845366 -149.66647246210673 39.57056540301524 -0.4909388959737207
61.43949215673875 -149.66097718187993 39.82645955028445 -0.5502123930490955
61.43623096913517 -149.65985519192895 40.71450191208668 -0.6092273369755529
61.43589135527355 -149.66440596701264 41.00050739547203 -0.6668393122767508
61.43820089879964 -149.66517571000833 41.26295601485891 -0.7217831626961609
61.43955718334357 -149.66433724169997 42.052525818972654 -0.7727027982080873
61.43862344374646 -149.66359184417772 42.54763302241532 -0.8181911008374148
61.43920986649012 -149.6616503006107 43.09396181243469 -0.8568392876533227
61.43933050751785 -149.66367999539526 43.39160131763335 -0.8872941436989722
61.43774435916153 -149.66335045603876 44.162202694029105 -0.9083205573710362
61.43894782495198 -149.6648895472315 44.292923169461616 -0.9188658430682983
61.43718395177054 -149.66306750750442 44.839696426699696 -0.9181215930354902
61.43603213883864 -149.65897054683492 45.28516227404331 -0.905578369373826
61.43667658204768 -149.6628638839127 46.15006426836974 -0.8810685521566959
61.43793616504864 -149.66166643552276 46.73938658743469 -0.8447931774459589
61.43956357320341 -149.65841124567095 47.03990470565825 -0.7973296209283248
61.43538318722641 -149.65743578417081 47.56450545765493 -0.7396184433211559
61.43907264111815 -149.6620760935142 47.99902872616419 -0.6729294662132943
61.43653649833129 -149.6652124181247 48.54316796623851 -0.5988089813038063
61.43746592027602 -149.66419635260868 48.80710270793668 -0.5190116841227524
61.43537718595139 -149.65995310792567 49.425819791867234 -0.43542224393437484
61.4421823388258 -149.6582719184101 39.04430441743938 -0.40778007041512176
61.44206792854428 -149.660601070608 39.26832022334642 -0.46393941553179663
61.44326903848849 -149.6581649554909 40.21026310389226 -0.520799204674622
61.439788075782175 -149.65988669108913 40.28683292638219 -0.5773925245767658
61.44188353144426 -149.66388019343503 41.18706699046804 -0.6326182811397812
61.44186594009332 -149.66384165590102 41.605399770736625 -0.6852605026897198
61.44413303870297 -149.66590563155768 41.89360902870773 -0.7340171404944452
61.44422312834368 -149.66276517773983 42.522185047982155 -0.7775384839561443
61.441885559290405 -149.66365777884195 42.80411662966843 -0.8144745519238688
61.44005179571031 -149.6646371705908 43.68651744594961 -0.8435299245819567
61.440678125924535 -149.66539077732781 43.83044438291239 -0.8635235463907612
61.442422262027634 -149.6617765488066 44.682197139721204 -0.8734501411556663
61.441780819136696 -149.65961931099963 44.75545589666366 -0.8725391799445044
61.44306761724278 -149.6623358266256 45.6693705556774 -0.8603069406899532
61.442517142440394 -149.66343271125297 45.774823803975536 -0.8365972198393001
61.440452306113855 -149.66383032451003 46.64590471238207 -0.8016067454483573
61.441315822938485 -149.6632018845578 46.82395742151129 -0.7558923235153214
61.4432965402633 -149.6618841558398 47.35322582029538 -0.7003581305301574
61.4431134599716 -149.657815932242 48.2230794772789 -0.6362232330990252
61.44232122034442 -149.66543396535664 48.586051041322186 -0.5649711454510137
61.443329411504344 -149.65738607464218 48.91077957395946 -0.48828483652095356
61.44178104924122 -149.6652466492874 49.64717981817689 -0.4079718565523235
61.447602801282194 -149.66119008791767 39.32809146334261 -0.43494795288512794
61.44650761748771 -149.66258150401262 40.172581592409216 -0.48912393028195683
61.44716051469845 -149.66458821134708 40.3912992522962 -0.5430186011796252
61.44566743222398 -149.66089303451355 40.824026775864965 -0.5955793799096616
61.44869054956578 -149.66522410684524 41.49530089789165 -0.6456455671426778
61.44772796553992 -149.66524505333243 41.81529966056189 -0.6919760222418393
61.44708693155958 -149.66491620897838 42.44419581560561 -0.7332858975900979
61.448388226248845 -149.65919893238396 43.1821701141281 -0.7682917976621019
61.44797110691714 -149.66573084159273 43.646723900074655 -0.7957638806837626
61.44673550480507 -149.66203736192924 43.82177605654852 -0.8145825504000573
61.445005219211566 -149.6609101040312 44.588325062864875 -0.8237965517942595
61.44554343861367 -149.66674108067556 44.860645301850276 -0.8226786417260097
61.44781209744402 -149.66075474511797 45.551076937669585 -0.8107746377195758
61.44817596334142 -149.65941334071314 45.86159570294503 -0.7879416763941642
61.44743371543002 -149.66563769643358 46.728532810370076 -0.7543719867662876
61.44564726759862 -149.66111196733024 46.8743155272766 -0.7105994068245907
61.4457795162443 -149.66036427434244 47.393484158864375 -0.6574871745749391
61.44866363409426 -149.66179199407892 48.16813561893092 -0.5961970798942356
61.44708943117151 -149.65766669091332 48.511119948147794 -0.5281416913751275
61.44801738568971 -149.66070587341187 48.994380663612134 -0.4549228651722969
61.44905358152236 -149.65882053956418 39.46927786116012 -0.40443211432635245
61.451752009788144 -149.66153352861207 40.1759990775184 -0.4557088065450603
61.4500261482991 -149.66569287641684 40.3538957786329 -0.5066844097093676
61.44906550365098 -149.665279056995 41.01537774440665 -0.5563590915246536
61.450592264662795 -149.6657902964405 41.32261453264498 -0.603632356108762
61.44932328377299 -149.6649222446117 42.10262035787531 -0.6473294857620369
61.4499711140904 -149.66329651821306 42.58163718412074 -0.6862364358201899
61.45164125613082 -149.6643952578174 42.823259820883365 -0.7191425475239925
61.449484842743885 -149.66566253067637 43.66678199601487 -0.7448896611592706
61.45000962448113 -149.66046333737066 44.11889480604292 -0.7624253965056452
61.44953148093367 -149.66259137273443 44.531420860700834 -0.7708576143907852
61.44934551668055 -149.6576503008317 44.94588738315543 -0.769506476830068
61.45248760910416 -149.66011910681976 45.48361545586504 -0.7579501953978984
61.45101862306026 -149.65827274194257 45.85941601579214 -0.7360606037586923
61.448785937776094 -149.66175266258952 46.483507407352015 -0.7040251352336611
61.45136594909858 -149.65902208093794 46.92577038901562 -0.6623526480628239
61.450227795776065 -149.66098047290185 47.41767964094745 -0.611861756778107
61.45156448478388 -149.6599070957392 48.172573087701544 -0.5536517690430655
61.450686675406864 -149.6649987036327 48.52577533943911 -0.4890578290547895
61.450432572604974 -149.66316449318126 48.9190606128864 -0.41959325506047596
61.4573481519138 -149.6595961547533 39.858039845421025 -0.421084525257621
61.45483456620576 -149.66537521537825 40.451557780623574 -0.4689788409921625
61.454240111751005 -149.66132036022003 41.00238739269905 -0.5156055539347245
61.45761427386498 -149.66485542690205 41.32020827635056 -0.5599281048280057
61.455774266497045 -149.66234911031094 42.0772517793289 -0.6008423133253786
61.45369315702109 -149.66146479479482 42.64667922953635 -0.6372093090129042
61.45710203946489 -149.66285195810067 43.17062323072494 -0.6678956383624698
61.45665351645391 -149.66602470575074 43.371714133720275 -0.6918191957674996
61.457768872595146 -149.6646217512113 44.08058183815957 -0.7079988840739386
61.45622428214194 -149.6627170349516 44.548286262956296 -0.7156052210146209
61.45735006670174 -149.66515915272436 44.98216186965922 -0.7140085720128424
61.45586172188383 -149.66114438255335 45.71161402230493 -0.7028214111457987
61.45680908469004 -149.66087779413866 45.93319574599387 -0.6819310559964183
61.454933734753084 -149.66399782512494 46.658646263463574 -0.6515197503296816
61.45742951856016 -149.66531070365988 47.085522475691015 -0.6120697669194455
61.454755324975324 -149.66172580933795 47.52837200685585 -0.5643523185467875
61.457257270019966 -149.66262304634802 47.97025665539676 -0.509400386735053
61.454759390387686 -149.65850661389155 48.516975285387645 -0.44846695607994064
61.46136613373058 -149.66167502995236 40.47853930945749 -0.4304823740645399
61.458232665855746 -149.66173508736537 41.20446488458576 -0.47395784915968114
61.4618582912212 -149.6594277205616 41.741282406970186 -0.5152302680559122
61.45987878418865 -149.66584471974343 42.138128596624895 -0.5532687085613708
61.46142839994422 -149.66040765877239 42.52857919713619 -0.5870122904994652
61.46082470437352 -149.66122578547004 43.127030616427234 -0.6154075678557801
61.45801942293839 -149.65737924880602 43.49727037633368 -0.6374511576595278
61.46054154496018 -149.65912229777953 43.806478097084735 -0.6522356529390476
61.458477125497865 -149.658154315646 44.2821291575636 -0.6589962468128346
61.46023708276574 -149.65896300275256 45.04194992602822 -0.6571550246739252
61.46171107716517 -149.65908927406002 45.55621344749748 -0.6463596383680342
61.45872214859917 -149.65843533361115 45.937979410430295 -0.6265131317730709
61.461002513481134 -149.66254315295117 46.512528238543396 -0.5977920888846439
61.45819992528325 -149.6662648070179 46.78968088335758 -0.560651009419671
61.4620769851361 -149.65819690198762 47.4166753138645 -0.5158118297339025
61.46196093843304 -149.6643876081816 47.940731906193086 -0.4642387130826156
61.46052226012985 -149.66516046039325 48.31234205047689 -0.4070994735995415
61.4646819929821 -149.66035515636779 41.19345429235686 -0.4320272985997483
61.46304686392374 -149.6664707708576 41.33869599922988 -0.470205766916001
61.46309405645622 -149.66061980877953 42.048520426375575 -0.5053295062149511
61.46579010225757 -149.65812522210544 42.72114839202311 -0.5364169555162834
61.46587717965834 -149.66011558449165 43.12422335918095 -0.5624958960841248
61.46513507307732 -149.66237524416906 43.5441449811525 -0.5826427232871961
61.46374350901192 -149.65933369722964 44.018051464196404 -0.5960245645674731
61.46264843881253 -149.66361871712533 44.60956133884399 -0.6019418841716966
61.46415832598678 -149.65736908289657 44.751074847947194 -0.5998688103749068
61.46369221130208 -149.6626079196545 45.683307887231585 -0.5894882103057024
61.46651027288483 -149.65745997818573 46.153329994539845 -0.5707186084019524
61.465713062304616 -149.6619959216063 46.45743602271398 -0.5437304099874459
61.46566375636182 -149.66489761958812 46.77454028670415 -0.5089495689799879
61.464831964026935 -149.66377397704616 47.32822166180729 -0.4670477446810122
61.46557824178061 -149.65812759411904 48.2492916463876 -0.41891907977677817
61.470326511309906 -149.6637920337408 41.49280617639982 -0.4254733983121015
61.46926795093011 -149.6659486358811 42.084467941040245 -0.45769290621481956
61.467502892371684 -149.66080736398249 42.44122407218841 -0.4861378093067826
61.46812970029752 -149.66666365328788 43.01399817634721 -0.5099168860597025
61.47115088415789 -149.6585823524019 43.39273642899204 -0.5281859001767534
61.46932246965323 -149.66167166411512 43.860507981410564 -0.540185945979032
61.46991799100986 -149.66124513462398 44.533612914553295 -0.5452820779989496
61.46843605525368 -149.66599528915975 45.00739407397961 -0.5429997291440682
61.4676944204244 -149.660054266374 45.42863947910838 -0.5330562510170884
61.470242420334046 -149.66219644876512 46.16524641062151 -0.5153849867655333
61.468047387659475 -149.66109097929842 46.70103038452641 -0.4901496297151217
61.46792464809883 -149.66093825654 46.93162221757571 -0.4577472178725381
61.46928225533064 -149.6643621984999 47.34955564220204 -0.4187989456791271
61.47465584161801 -149.6647036145125 41.825184384183174 -0.4109593783551322
61.47572048210583 -149.6634754322866 42.43166106616427 -0.43681600497767703
61.47268252827262 -149.6593074320749 42.883385644395574 -0.45834814140319985
61.47370292524793 -149.66457103296284 43.50253663525847 -0.47478922672182267
61.474759209500206 -149.6602664391242 43.81066585146378 -0.4854525324876092
61.471878305789964 -149.66508720735547 44.51112829289062 -0.48976592800931396
61.47221498237183 -149.65828358271767 44.92257810977408 -0.48730451360129284
61.47566325293549 -149.66100595712746 45.716303412682095 -0.4778187531216721
61.47273290971555 -149.66541970701442 46.06053723674195 -0.4612558195706924
61.47420400693207 -149.66308678941272 46.60870366006907 -0.4377721763553351
61.4730350202267 -149.65907807636182 47.153985786186475 -0.4077359568273018
61.478796318663875 -149.65759871080672 42.92317100103628 -0.40837655456333877
61.47629839021747 -149.66528800083182 43.38599512506095 -0.42306516419824675
61.478641613294705 -149.66409623855748 43.858111945631315 -0.4324564367759846
61.47988813696835 -149.66490846130833 44.71974367387971 -0.4360383859811777
61.47650963749714 -149.65796062133197 45.218634994020405 -0.43343341850105144
61.47851361430957 -149.66513611692284 45.550395231134985 -0.4244232378004606
61.47724042273105 -149.66573107251332 46.22765319662011 -0.40896761803772724
61.32939610325129 -149.65405739508188 43.56869765928685 -0.40211002261115025
61.33153527193255 -149.65350223945316 43.888489238508505 -0.40367970646429113
61.330217887262855 -149.65278866437095 44.64529083702224 -0.4012412309647885
61.334787775085196 -149.65368921454177 42.14888306651667 -0.40919494622194647
61.332710483618214 -149.65024734958996 42.43215340598676 -0.42290361292949613
61.33289562991058 -149.6480608749263 42.934966384780786 -0.43313236001865496
61.33523267637554 -149.65231210737974 43.62888393961252 -0.43951548447021865
61.333043209965346 -149.65509472909466 43.92749097303845 -0.4417484671441863
61.33396347172792 -149.6523556805274 44.46205689003147 -0.4396018735420386
61.332175429181284 -149.6515369274411 45.165428778839285 -0.4329334170403933
61.33372074290122 -149.65257987696788 45.25048573768694 -0.4216974237554858
61.33571672021491 -149.65681174800082 45.79211052539826 -0.4059510189804738
61.33864601473677 -149.65538627654186 41.23322137601938 -0.4038234055888679
61.33897486966873 -149.65456102537425 41.66980866647026 -0.42531735424751804
61.33868407105303 -149.6506574370354 41.85595364302034 -0.4440127796414372
61.33989134950776 -149.65029304300694 42.52855769336996 -0.4594166917805406
61.34006099876532 -149.65307427846966 43.17494175375777 -0.47106834731085606
61.33668071522584 -149.6514533284261 43.61917373229985 -0.47855638037422704
61.3368582769928 -149.64858795192868 44.176680881716145 -0.481535739022415
61.339023022552055 -149.65545648774912 44.327475809413556 -0.4797435511288716
61.33877796099408 -149.65501359603462 44.98495733633863 -0.4730129899675032
61.33833290449371 -149.6538025308309 45.697658112070194 -0.4612842567924099
61.338960853169105 -149.65372917085259 46.19995695128009 -0.44461188294368814
61.33665744969417 -149.6528637959812 46.54428710576406 -0.42316773093824334
61.34403205496848 -149.65502607710687 40.633972411432424 -0.4093308289326388
61.343338294336455 -149.65125936238772 41.099639596302616 -0.4354544849950221
61.34430616081597 -149.6525341419444 41.4901779111678 -0.4591661765977511
61.343842671153936 -149.6524361124546 42.013925288082184 -0.4799046414134906
61.3425745646981 -149.6538138460106 42.34026700259474 -0.49712343694880495
61.34456296771383 -149.65029288268371 42.994474147242386 -0.5103093623772542
61.343429402908086 -149.65000646576166 43.38784768053389 -0.5190016747757723
61.34345363993527 -149.6511950855232 44.243233483588135 -0.5228112132496492
61.34389342718906 -149.6566425500331 44.64205895709562 -0.5214384216095582
61.34129160629407 -149.64913880536886 45.19813076588678 -0.5146892149978104
61.34391131599642 -149.64812221324775 45.46147165130795 -0.5024876569952287
61.34507521360448 -149.648758969255 45.96062537375345 -0.4848845193639998
61.341554670817004 -149.6568179408872 46.72591718508287 -0.4620609983223347
61.342851643897795 -149.6540155698419 47.20499231656716 -0.43432711495527565
61.34156166315061 -149.65341126336236 47.58424885483103 -0.40211466300700516
61.34558856556695 -149.6561952073622 40.14150035054835 -0.40859050614413467
61.346819393725056 -149.6534581994451 40.338772204493765 -0.4390833022655344
61.346391096941865 -149.6503235048054 40.773691707638676 -0.46765705100440474
61.346984122584374 -149.6491873021162 41.259687837418895 -0.49370010780378903
61.346922205217744 -149.6553611579814 41.8538424244814 -0.5165957924241503
61.34821844041632 -149.65607500675497 42.54385472464063 -0.5357409812781316
61.34670367781032 -149.6554167548524 42.7622526654522 -0.5505665399759738
61.34582708238541 -149.65662130168405 43.41446279681974 -0.5605587787461612
61.34749355024502 -149.6552984302828 44.22727145773848 -0.5652809413024805
61.348209677994554 -149.65189856267457 44.60636205036354 -0.5643935831490035
61.348440934723556 -149.65071078680148 45.041362826543846 -0.5576726324606844
61.346863218999964 -149.65676901974314 45.63664838763048 -0.545023943212363
61.34778228162498 -149.65342522764544 46.224546465015514 -0.5264932672915472
61.34656182249875 -149.65586853733504 46.61278546336608 -0.5022707856093731
