> GMT_LATLONDEPTH
> out/cube/20240303A_EastWest/PointSource/FF_1day
61.42192642944052 -150.21518384909425 47.574901012742615 -3.7028474023737004
61.42592729913549 -150.2200720684694 48.21779990556126 -3.4671497153364554
61.423859429523205 -150.21356726234453 48.45971884056713 -3.198737767704216
61.42533182239292 -150.21693058681342 49.095924930485815 -2.9093584549913
61.42491931761187 -150.21830715923028 49.62960354653488 -2.6098695974691735
61.42366053665319 -150.21857691308819 49.80028366586175 -2.3095542946750256
61.4223083188124 -150.21968997834986 50.70645159544627 -2.0157485186055353
61.422095110933434 -150.21356033630536 51.04935406342956 -1.733811853149252
61.422460219429865 -150.22048792371604 51.32099111430063 -1.4673480118773903
61.425845707521674 -150.2194511737748 51.84408097835018 -1.2185446025661282
61.42413690426474 -150.21345197481872 52.62376198405403 -0.9885261753098573
61.424324015455625 -150.21761913618033 52.76360567674715 -0.7776592596369876
61.427821584041006 -150.21447368655447 46.71143029616622 -4.01171821756003
61.42793703856145 -150.21823449891713 46.84431290187943 -3.898546493672792
61.4277851885367 -150.21981970120484 47.65435653184651 -3.728747645881779
61.42942809346977 -150.21579004791636 48.05621958668652 -3.5126705937980134
61.42664705256638 -150.22192629417762 48.50363650198239 -3.2615010014362125
61.429365210689475 -150.22214846123234 49.11225686245439 -2.986589174268176
61.42768796818859 -150.21788281490674 49.306304024694455 -2.6986174817035384
61.427921708395864 -150.2206248650163 50.05183305487153 -2.4068753756256065
61.42715673382661 -150.21788173057163 50.58295598301656 -2.1188417079398114
61.42716711605465 -150.21611418105593 50.78795041770385 -1.840112031271842
61.42926910684338 -150.2183386607794 51.355450104936374 -1.574582658001031
61.42716336734597 -150.2220193663648 51.8291656259358 -1.3247625891263737
61.427574002315396 -150.21459762908884 52.58294278604695 -1.092106369053968
61.42670912199913 -150.2174658485656 52.8474123651472 -0.8773045066967524
61.42883484358665 -150.22141744341164 53.55964842628519 -0.680506686591097
61.42804658827494 -150.21834683692597 54.13505390624825 -0.5014779432396762
61.43115648891257 -150.22055312018995 45.836716226893955 -4.012401813587688
61.4327618367977 -150.21682353938888 46.41407351099995 -3.9857347502671887
61.431137377511824 -150.2158630759773 47.05283417592458 -3.8939199427554865
61.43158307711916 -150.2165120221569 47.2742318503838 -3.7451289893003326
61.43490428024066 -150.2200045585914 47.96031811110689 -3.5488706070854956
61.431241822983004 -150.21937948092867 48.36809702931621 -3.315633131156124
61.43417423380558 -150.22043572922433 49.034775418644415 -3.056236597177579
61.43174620286861 -150.21458097637162 49.63486152023532 -2.7810236899228618
61.434537090918745 -150.22016666393037 50.121300586098094 -2.4991404943782496
61.431305412781164 -150.21312024282614 50.42049346437283 -2.2180993103417306
61.43378224182926 -150.21640676202287 50.82936650089309 -1.9436678163050878
61.43479985395562 -150.2168410662024 51.37190642763423 -1.680009053956478
61.43453951723823 -150.2176379776627 51.9830242851545 -1.4299534855296931
61.43519779587039 -150.2182132077803 52.41865471057217 -1.1953006053808188
61.43263465752219 -150.21759224860378 53.143803595417545 -0.9770867066551628
61.43361236424613 -150.2198058118536 53.35609411350044 -0.775792013895201
61.430910205529095 -150.21764540447418 53.98280687401787 -0.5914852096916223
61.431017139833685 -150.21779778028895 54.58665623315288 -0.42391671879855813
61.437458270966395 -150.21550250338686 45.94491205918492 -3.961802582813695
61.43960721168586 -150.21563071787648 46.57588426955218 -3.9544000272309026
61.436684925809075 -150.21964049305203 46.779098748445875 -3.8827329110353093
61.435499365018224 -150.21404451431115 47.28009175209611 -3.7541579900264446
61.43874776366519 -150.22031632034216 47.98120205100424 -3.5774142610636526
61.43837705289935 -150.21456665214248 48.45949721893741 -3.362271952088759
61.436027806390555 -150.21451514706698 49.105787122343926 -3.1189278808391783
61.43878288360735 -150.21362953131336 49.53261046611142 -2.8572570456952024
61.437479004403166 -150.22071339220108 50.013523167646966 -2.5861361730417376
61.439451794460965 -150.21715941522757 50.674165321846495 -2.313011118318337
61.43731880140965 -150.21405840883617 50.81483538567026 -2.043756170624636
61.43770013327716 -150.21853487064666 51.690488859137986 -1.7827668398723802
61.436633173274174 -150.21571757830282 51.94987224756691 -1.5331838270842661
61.43904117254487 -150.22172321953835 52.41348675924793 -1.2971547776057162
61.43751605247229 -150.22226991365568 53.15309980526393 -1.076072604013258
61.439386917471055 -150.21534054264018 53.35526632454262 -0.8707619662887929
61.4370515525996 -150.21492766063454 54.12638395771293 -0.6816092602100481
61.43663788324771 -150.222099643973 54.60682625142071 -0.5086452824280991
61.44319127243237 -150.21885178016774 45.694298639984616 -3.831155446891041
61.440007253768556 -150.2152147222327 45.970235571138154 -3.909765888290945
61.44080272992352 -150.21772649080415 46.63625574972331 -3.920090191129639
61.442870304135404 -150.21451853467693 47.08445429495709 -3.867205818321139
61.44048856334867 -150.2154683823066 47.456834920611264 -3.75778300856638
61.44346080962608 -150.22017918545578 48.13368431687721 -3.5998651711689695
61.44052685086155 -150.21746865365816 48.34793050099819 -3.4025164651840316
61.441571888740896 -150.21592200110666 49.0498393600631 -3.175268626158195
61.43997893035532 -150.21794693478785 49.49520949600802 -2.927453083284225
61.44362699141927 -150.22190855087482 50.16116461551876 -2.667590589265908
61.443565388726604 -150.2158712782567 50.386501140211564 -2.4029819699100137
61.44116196304457 -150.21476176752896 51.060205270157454 -2.1395477970182717
61.44147780154966 -150.2191155518535 51.60533853681474 -1.8818761122034937
61.44320338190748 -150.21353226642142 52.16272667117645 -1.6333953343934218
61.44275415044811 -150.2153611544125 52.5348627228893 -1.3965912835336447
61.441977383707766 -150.22235126184094 52.816544737593894 -1.173211434856942
61.44086506339489 -150.2206067805607 53.63306784463386 -0.9644272204852984
61.44046013099347 -150.22132097876363 54.11618372855957 -0.7709469923896197
61.44045269799118 -150.21846528832833 54.64342646954825 -0.593086142225712
61.44127113168576 -150.2141173212031 54.83870866864938 -0.4308082688416918
61.4479223516132 -150.22083386268926 45.3192768281532 -3.764667732879384
61.44647277347379 -150.2183156968469 45.952927686498 -3.857809734875914
61.44524864022832 -150.21841072193973 46.26815131811741 -3.8844000901441627
61.44804563866081 -150.21353663964052 46.80494771267897 -3.8489189530990915
61.4447575530129 -150.2148446452665 47.74594426319229 -3.75744567131033
61.4463733780629 -150.2158647175724 47.817436963350595 -3.6173976365496325
61.44688833791694 -150.22232281231175 48.672938015190304 -3.4371717360510403
61.44754776825573 -150.22208783858244 48.91045759835656 -3.2256412202769047
61.446988211715556 -150.21889072449258 49.656368181060465 -2.9915716915011887
61.446629529861696 -150.21436003866862 50.10854683419372 -2.743085486416832
61.4448519362741 -150.21450571757327 50.62457379121407 -2.4872872677371705
61.446158049108895 -150.22113547714363 50.83247044244493 -2.230094346367404
61.4483603192949 -150.21307868547046 51.28958917308275 -1.9762456740458527
61.446878760822 -150.21900592215871 52.1247828855185 -1.7294257806059257
61.44721250147999 -150.21347591841317 52.64582588694512 -1.4924362951306622
61.44773339571065 -150.21847168174682 52.92458236135597 -1.2673641723230178
61.44698907402492 -150.21486258017345 53.72840454189557 -1.0557177874600985
61.44527025467196 -150.22093505228233 53.890712404866086 -0.8585211230591338
61.445266555536016 -150.2214513387455 54.70413825465479 -0.6763696835739547
61.446225647994765 -150.22052648669361 54.77585223146866 -0.5094601209523263
61.44979565259717 -150.21682064411704 45.4863265004366 -3.7001312188170683
61.452855488387286 -150.2223320085576 46.016551877792935 -3.8065369303092034
61.45308703967394 -150.21910224441484 46.49941598606616 -3.848061205673952
61.450232866780816 -150.2180407291295 47.00438146350184 -3.828656949742668
61.45063253408214 -150.21508241589976 47.64054632337936 -3.7538785732195983
61.4505945616278 -150.21667404822642 47.871047226777854 -3.6305801480012785
61.44911874954371 -150.22026368473735 48.55575472783735 -3.46654823537834
61.45117232152873 -150.21462811058365 49.037006082675774 -3.2700409974023685
61.45240947909319 -150.21946343316597 49.692003131342496 -3.0492796694678157
61.4529995093808 -150.22105167146236 50.18382649397002 -2.811984798901933
61.44891683835214 -150.21720046412688 50.48545471609744 -2.5650410031949047
61.44975453502301 -150.21453661347746 51.0234460314642 -2.314326475601627
61.45193207457772 -150.2202918395336 51.608375291339954 -2.0646916893471388
61.4496606803923 -150.2134025825257 51.8011135417087 -1.820040115143648
61.449818798876194 -150.22236016651945 52.53106380868249 -1.583456970883046
61.45051338512629 -150.21847621540823 53.198044100549446 -1.357342087366047
61.45316451898209 -150.21761223846315 53.540980815760456 -1.1435194711097243
61.45316065728557 -150.22040690356658 54.20221015090387 -0.9433119868571164
61.45018920540164 -150.21722467149044 54.746505392397154 -0.757581969260168
61.45000604430226 -150.21689980528865 55.10155344140581 -0.5867476357812417
61.449183888586845 -150.21545531349122 55.69582685458297 -0.4307917725362554
61.45449004518061 -150.21739010685152 45.66367595197188 -3.637211094829817
61.45509035882978 -150.21758345832424 45.97565934346719 -3.7557476073428977
61.45577891991126 -150.22227023680847 46.28534118809186 -3.8109883145045695
61.45767919932834 -150.219478259198 46.971069467638486 -3.80639824911261
61.454717885245806 -150.22059441563036 47.39562911756802 -3.7470525672274397
61.453606817959404 -150.2133394601531 48.02799388083747 -3.639299044394945
61.45455054466103 -150.2207609018611 48.378875308164304 -3.4903805205597314
61.456910748331744 -150.21367515109264 48.912826461833596 -3.308005466696291
61.45562858942693 -150.21872232835673 49.263656568959355 -3.099900630712614
61.45746148853071 -150.21667737551408 50.01086636055055 -2.8734093561157596
61.45670755912727 -150.2144998193999 50.29727920358835 -2.635194332847318
61.45547788696265 -150.22094428621227 50.78515067846265 -2.391072123220531
61.455166781387426 -150.21663092340282 51.38046683443154 -2.1459700778006
61.453321679399785 -150.2175370614202 52.15052609146266 -1.9039713569342518
61.45727046088819 -150.21636931641262 52.27082268588043 -1.66840595096022
61.45359259833348 -150.21959315619367 53.17804141880079 -1.4419509325219844
61.455955162295574 -150.2142057508289 53.416380139716985 -1.226714751282379
61.457329180563015 -150.2215506435507 53.873755151809945 -1.0242928157617166
61.45571480588574 -150.21587166492216 54.706337398982896 -0.8357925283041417
61.45343680224883 -150.21385714938498 55.24999308287286 -0.6618354091633232
61.45726766990474 -150.21385660585892 55.36006933075455 -0.5025525683250909
61.461124754955385 -150.21459614967407 45.99898420467075 -3.7046266310870335
61.46206883318593 -150.2203867853033 46.285404881389766 -3.7724297563679317
61.46101918828997 -150.21508780082135 47.1398380211603 -3.7814316068965996
61.46141585519567 -150.21995796541978 47.25361062400671 -3.7362634863384696
61.459566405283105 -150.2190363921445 48.0889498530287 -3.642820222298087
61.457880356360484 -150.21517439818103 48.47443396159184 -3.5078701552519087
61.458071474973124 -150.21425306937036 48.94377932055957 -3.3386459390890426
61.460297363799064 -150.21350362139844 49.39490210932224 -3.1424428253752876
61.458945156490465 -150.22118202368569 49.88138703815956 -2.9262667684590995
61.46062733744411 -150.22201758915273 50.6365930196828 -2.696570784547021
61.4603092844264 -150.22205240223292 50.7813978147331 -2.459097662326233
61.45908258206029 -150.220620628992 51.48512284656445 -2.2188223045325017
61.46177197940291 -150.22081299248808 52.032307289754655 -1.9799686881751908
61.4612047515454 -150.21626358070668 52.402213968560254 -1.7460691737242158
61.45784192586673 -150.21573222660106 52.95567953784522 -1.520036139470076
61.4603616331253 -150.21856008575114 53.277874456727446 -1.3042234427941286
61.45939681940259 -150.21654295717295 54.195635396451316 -1.100464334350245
61.459360281404614 -150.21864246624628 54.52559631094832 -0.9100816045675834
61.45836708966784 -150.21701543526154 55.23371588152985 -0.7338753126897986
61.46224368471239 -150.21544449257732 55.62818786707249 -0.572104056880049
61.458142822963396 -150.22083639356995 56.05922913825209 -0.4244858442645493
61.46390726605559 -150.2155869170791 46.039545847124415 -3.6519506657119614
61.46610876539474 -150.21915914004873 46.39305123210382 -3.7311642241605
61.464769822323596 -150.22156226063117 47.19335437708003 -3.75254186583522
61.46344605723445 -150.21705049467474 47.272191833822724 -3.720303406362108
61.46574080671657 -150.22050885620106 48.05420954473783 -3.639941343670796
61.465550443026075 -150.21370455262988 48.663125519456855 -3.5178158275554083
61.463778428094145 -150.2170154337052 48.981119576641355 -3.3607556874672557
61.46569927171122 -150.21417846829098 49.655406370956726 -3.1756885013935046
61.466244134385995 -150.21929922977122 49.944346437065896 -2.9693267016700595
61.462671852967226 -150.22198130168118 50.549429189118705 -2.747931999686549
61.46629565731474 -150.21877691002894 51.20286526907427 -2.5171674000185065
61.464328648088006 -150.2138521046125 51.61563935392116 -2.282030364901796
61.462675868872786 -150.2168699710655 52.145385569797455 -2.0468483786309246
61.46331592323412 -150.22012074223647 52.31453481208942 -1.8153124318692615
61.46308977222553 -150.2175777531536 52.969012442871914 -1.590524415438498
61.46661490372737 -150.21848306125497 53.608326829057475 -1.3750387873483874
61.46333001797919 -150.22110327230232 53.8178895670438 -1.1708849891626663
61.46343339894609 -150.2136911762517 54.676964323714124 -0.9795643454509227
61.46587170412559 -150.22068073325087 55.18230687046169 -0.8020245544977553
61.46539254327319 -150.2223563081767 55.72401302345811 -0.6386272796753397
61.46672506282713 -150.21529915817038 56.13872092969323 -0.48913775770405815
61.46939406918521 -150.21425589646975 46.06306321338891 -3.5962667482354593
61.46855275278963 -150.21497801337108 46.311580273714284 -3.685690280844441
61.47012744545751 -150.2137325286683 47.196912987920335 -3.7182067594668613
61.46896421358697 -150.21320274567216 47.447111203141276 -3.6976572208736758
61.47124134413387 -150.21643429002174 48.17818710331779 -3.629178875333347
61.467855948882075 -150.2131155834508 48.51232914055964 -3.5187826223942955
61.4711958340767 -150.22206724100053 49.16688650685489 -3.372956503106759
61.46880057297632 -150.21824712067686 49.37531436606928 -3.19831672483551
61.466976812630506 -150.2174100855867 50.0825340649939 -3.001322039230818
61.46822699969597 -150.2178598607087 50.708377433212206 -2.7880608761529055
61.4706526023351 -150.21560401917185 51.1451044515901 -2.564112489047011
61.46840648336535 -150.21920776783998 51.37254514714825 -2.334474556816583
61.47109204551413 -150.21601513267524 51.90723321559506 -2.1035425672267225
61.467202168999236 -150.21365740367358 52.597044169166665 -1.8751225247846337
61.470493824333836 -150.218531073683 52.79254183702919 -1.6524581744808715
61.46737832781095 -150.21711352489143 53.7424422066293 -1.4382559663655639
61.46811779616689 -150.21695836676878 54.14815744184481 -1.2346945186045954
61.46765167867122 -150.22226463223856 54.3771295494783 -1.0434107179638399
61.46905254680914 -150.22192413783924 54.84119430668684 -0.8654635307372701
61.467792038951494 -150.216395871343 55.32839083736663 -0.7012903771383858
61.467189113605244 -150.21323366988884 56.07895742938797 -0.5506872854826883
61.46813111566259 -150.21855784819536 56.6263851302949 -0.41285453565712193
61.475045905182675 -150.21857822410516 46.455692798293 -3.6343813667650386
61.47339122394354 -150.21695736679462 46.84237765136213 -3.676770862882974
61.47218856833613 -150.22149295739024 47.39168422065084 -3.6666862879669977
61.4731424453341 -150.22151770230516 47.873320438054435 -3.6089505453672857
61.474351761345886 -150.2215613893313 48.73532374290713 -3.5092731688955845
61.471508439175075 -150.21466337463374 48.814772765018056 -3.373851153598385
61.47220211785964 -150.21760227335724 49.54255649225009 -3.2090334090739043
61.474690624909876 -150.2211193522946 50.129394576277654 -3.021056113756488
61.47196757852905 -150.2171700435353 50.435460127957406 -2.8158479740693823
61.47416060653215 -150.2221629541365 51.11292874294811 -2.598899588202833
61.47454436239655 -150.21787921580292 51.60977316617458 -2.3751876163613503
61.47166803851973 -150.21702409331922 52.21087789744139 -2.1491416934567034
61.47215866649172 -150.21638254388247 52.71189548085065 -1.9246402783219556
61.472073936277816 -150.21393552776047 52.9213023248369 -1.7050210702960993
61.47391297940115 -150.21487083387754 53.704414952413735 -1.493092027695816
61.47273439413919 -150.21822280503838 53.77962261077724 -1.2911304659798373
61.472439494390095 -150.21746909988903 54.55954121589953 -1.1008613963771874
61.47217038873586 -150.21523277526472 54.789278476168384 -0.9234145288375423
61.47508018702268 -150.21591110725217 55.69619909763712 -0.7592739339573856
61.47214688781381 -150.2134897411952 55.834274852873286 -0.6082528307830882
61.47576259615342 -150.21958011011571 56.471924743438734 -0.4695388285621848
61.476359187253955 -150.22149817564855 46.66398317198291 -3.5756095156177583
61.47842450676934 -150.2201762946504 46.81979161319886 -3.626591490697468
61.47888582478855 -150.2214669426479 47.255304559612405 -3.6257869550083637
61.47879957669779 -150.21950531621022 48.09914641041917 -3.5777360701022407
61.475897663161355 -150.22180958315604 48.72077506468348 -3.4878809824707795
61.47662444356477 -150.21433918603122 49.120826247861054 -3.3621619517122516
61.47871531972604 -150.21458314121045 49.375542303353264 -3.2066906392274475
61.478009757871206 -150.21565320713165 50.00443559641615 -3.0275012321772072
61.47821677312228 -150.22110750440228 50.35190961884913 -2.830370000543278
61.47898771654591 -150.21893050610262 51.09000595779444 -2.620691515173993
61.478883823806854 -150.2196808484488 51.28559184455694 -2.4034003624607823
61.47919588621121 -150.22202329228944 51.772153048467544 -2.1829279949052145
61.4777786287816 -150.215323444173 52.267662540329226 -1.9631845298659607
61.47731992092166 -150.21886108078252 52.95649550883279 -1.7475549176126115
61.477344914863174 -150.21930656664415 53.32973118140696 -1.5388982677781984
61.478849365512126 -150.22177462743508 53.83959077161848 -1.3395390180939863
61.47726426023272 -150.2141421850339 54.52903978755088 -1.1512408793270523
61.47652320715819 -150.22082580706586 54.752476349456984 -0.975161900576642
61.47595213304335 -150.22225707256217 55.271920081980895 -0.8118035908410051
61.47706372816365 -150.22079171592125 55.788059266007224 -0.6609863782608945
61.47933841588203 -150.22019116648883 56.611279780402675 -0.5218977306177883
61.482915803544394 -150.2180333231886 46.25157513905057 -3.5078592747114703
61.482149912806214 -150.21309910774627 47.20924577076833 -3.5661693281697056
61.48148316622088 -150.22215429233972 47.48661363917635 -3.5735290205842842
61.480863225462066 -150.21631202136277 47.964011882518996 -3.5342148823049144
61.48451266489845 -150.21844019439936 48.73738041452444 -3.4534201422227238
61.48168741740792 -150.21889180467514 49.062922680100215 -3.336846906350442
61.483767233139915 -150.21734746298705 49.61363099611159 -3.1903859550048796
61.48222757771399 -150.22038913808893 49.99602065550598 -3.0198798437638223
61.48450371637706 -150.22122537577053 50.56776685971528 -2.8309533899459955
61.48154906242958 -150.21973238675258 51.14087914434938 -2.62889501092175
61.482159784572204 -150.22170950771908 51.656015317694155 -2.4185760957908222
61.48292043082116 -150.21682799870243 51.77342090816052 -2.2043992075660555
61.481708039250215 -150.2151478850486 52.73737460532191 -1.990267757436591
61.48306401996749 -150.2182808364822 52.88691085288962 -1.7795698102897877
61.48181087697054 -150.21781807527532 53.54032644332023 -1.5751675242822178
61.48078757856713 -150.21320692800825 53.94319894643213 -1.3793826124534962
61.484111198487405 -150.2130923026815 54.422017865956775 -1.193969345984908
61.48379353285246 -150.22158493862253 55.20092130853532 -1.0200730157438425
61.48110611656832 -150.22003699481263 55.3874596760567 -0.8581855292872763
61.482909276851004 -150.2137337770846 56.179253893324045 -0.7081285677228221
61.482184056056795 -150.22095028840198 56.40840413449528 -0.5691085048478881
61.48314611280427 -150.2220268895307 57.109086447355416 -0.43988074084424267
61.485074722408136 -150.2222156139358 46.305428871139966 -3.4298516689503176
61.488461126560416 -150.22235576400695 47.17002279666906 -3.49427745809437
61.487354384873576 -150.21657068797708 47.398448769860124 -3.508782334268067
61.487034592547616 -150.21787811232056 47.80017695681367 -3.4773844745348437
61.487652615428956 -150.21880335968848 48.52298999006474 -3.4050313299271386
61.48789788947697 -150.2167463567616 48.944505513161396 -3.2971910162872646
61.48835916601201 -150.21598516835215 49.71757215277927 -3.1595378376514507
61.48782114030207 -150.21365471618506 49.88308921930222 -2.9977243530582878
61.48730066861775 -150.22046433951837 50.603116532314715 -2.8172195645948466
61.4869464571612 -150.21524956195728 51.00659844975757 -2.6231933048335745
61.489167446238504 -150.2215553930274 51.33977298104856 -2.4204327683581033
61.48590184807565 -150.2210748524524 51.95605459047609 -2.2132828117303163
61.485074538484504 -150.21566789260876 52.617752444752426 -2.0056048576099483
61.4874388428581 -150.22079718943402 52.83903433626766 -1.800749815559148
61.488192527241694 -150.21808261573398 53.42214143113702 -1.601539176098691
61.48864539707721 -150.2157249458463 54.1586567450675 -1.4102468105459958
61.48661268839265 -150.21566008123153 54.52216336696721 -1.2285743305614694
61.48695335437103 -150.21324224028504 55.23209987998887 -1.0576180863704974
61.48697678013017 -150.22126482560344 55.69507903109712 -0.8978379819494126
61.48694656970286 -150.21730313170926 55.77268232528187 -0.7490550099786661
61.48760700161286 -150.22208511252603 56.72500415992887 -0.6105165296839626
61.48712540529614 -150.21813228803873 56.88329022155656 -0.48106181149439503
61.49226233416597 -150.2208781108808 46.76859661922779 -3.410088719314072
61.48997736243075 -150.21380420491457 47.670458529488485 -3.4308310026879254
61.4902303397517 -150.21719392077813 47.93598932907948 -3.4066585503036513
61.49172857094775 -150.22136835304494 48.73121001293998 -3.3422631588889162
61.49191064341205 -150.2212081399781 49.02304400727989 -3.242871362059329
61.49324449286067 -150.21787485551366 49.30064059556172 -3.113935891386273
61.49224893284948 -150.21810744181371 50.149289851314954 -2.960914116426681
61.49165819299468 -150.2165663339444 50.55625077033786 -2.7891107322138615
61.493064743539556 -150.2217366621261 50.816590060399875 -2.6035628908084494
61.4912872070667 -150.22172116652624 51.712101937990504 -2.4089530315804835
61.49173397254256 -150.22156782299308 52.20270062078657 -2.209541656528075
61.4907115088249 -150.22203774310233 52.60396093502424 -2.009116555463294
61.49068730281682 -150.21621275902223 52.804228795043784 -1.8109561873659148
61.490263420596946 -150.21617598836502 53.26070565012045 -1.617803916307086
61.48987730622676 -150.22221855385243 53.84826931412382 -1.431848076500373
61.49147404198523 -150.21901755258185 54.58496368611034 -1.2547025963757754
61.49255272862957 -150.21491793089612 55.12597630770123 -1.087386818538218
61.493751175894815 -150.22116292189932 55.48537824047256 -0.9303129024489253
61.49130220454079 -150.21776691280485 55.794484849702414 -0.7833027692077358
61.49041289630936 -150.22231582939915 56.440889412774304 -0.6456660127124298
61.4904732493381 -150.21992543171294 57.03977479876692 -0.5163637525350242
61.49604282020238 -150.21646902223694 46.87709691105222 -3.313238029342062
61.49436892106817 -150.2189401582782 47.73348800257555 -3.339377287006188
61.49465263428882 -150.21338768556313 48.098434308389656 -3.321817985457043
61.49491472886568 -150.220076781346 48.468384550806135 -3.2649778049447584
61.49385059664992 -150.2168497113501 48.77982898737886 -3.173826072265586
61.49488233076245 -150.21912914601103 49.690333370923604 -3.0535820687287494
61.496553506704586 -150.2176363887984 49.80283043806334 -2.909497672008833
61.49717314899801 -150.21446589583172 50.63422367711117 -2.746701527762042
61.494985751749 -150.22051121986541 51.20542494497249 -2.5700826251953957
61.49437340326495 -150.2184134215762 51.27737099239737 -2.3841984584796454
61.4975617618458 -150.21734596666042 52.18291170590556 -2.1932005503203245
61.49683109761038 -150.22039607923188 52.6999144563338 -2.0007750636508095
61.49442846833406 -150.22154271046293 53.001538896935 -1.810098068740337
61.494524478073544 -150.21888383567722 53.63807248181596 -1.6238045050112682
61.49442694765443 -150.21434254902593 54.032899177980795 -1.4439683312170346
61.49607505669982 -150.2149074534374 54.32264772857453 -1.2720907186631008
61.49766646536624 -150.22235447099052 54.92375444282731 -1.1090956072940794
61.49801900993722 -150.21543271785035 55.67863142862938 -0.9553388967631946
61.49535733376827 -150.2197296902836 55.98320882554172 -0.8106473350687032
61.497713426978436 -150.21895042492133 56.58811463187593 -0.6744095243242331
61.49756146460925 -150.21380793995286 56.852489175108616 -0.5457352868681828
61.49476626063335 -150.21498864535727 57.61380551825357 -0.4236759267444287
61.50088197952064 -150.21958820006853 46.89975763985971 -3.2041266700138102
61.5017997757192 -150.21909947150792 47.53692802473618 -3.234990782274795
61.501726369954966 -150.21862596608534 47.94470437905962 -3.223581244943992
61.50268425920602 -150.21879239700485 48.56203372208535 -3.174019768025722
61.49907909650401 -150.216654335986 48.93897390808301 -3.090998874689854
61.49897792778809 -150.21733798072174 49.57600192159526 -2.9794885649207608
61.502318253503034 -150.2178613678196 50.17933896935127 -2.8445216594173726
61.501878854258976 -150.21920350397832 50.44997792902669 -2.691036979065286
61.49949265074306 -150.2202060477563 50.93599842907739 -2.5237593832074414
61.50095173344717 -150.21944241387558 51.7256583148673 -2.347102441044211
61.4987769445816 -150.21329389060793 51.86962612823475 -2.1650870429344113
61.49848380907641 -150.22191422797158 52.61399347852938 -1.9812745616540863
61.50012073914462 -150.21957857013962 52.75758795237197 -1.7987155813162556
61.50168424054291 -150.21914526174191 53.300976842269414 -1.6199152660425236
61.50100604762079 -150.21651960341606 53.884802517872195 -1.4468152301257522
61.4997729569139 -150.22107708838894 54.65801008413683 -1.2807908022604786
61.502819397273626 -150.22103858754946 54.95800339525986 -1.122663559429369
61.49993796074499 -150.21943548801124 55.359089666295795 -0.9727330129499369
61.499075306159305 -150.21904832745238 55.9169600567904 -0.8308372436945536
61.49936600794876 -150.21891390790225 56.73293450752574 -0.6964556357985137
61.50103149847827 -150.22194488175998 57.07274093104693 -0.5688612907333047
61.501854037769164 -150.21774027562367 57.2721750089063 -0.44731297824998983
61.503891821227015 -150.21414222421146 46.836191654521244 -3.0838619048016573
61.50414562779719 -150.218677666862 47.32620929916396 -3.1187806725694975
61.505263630327065 -150.21816187062467 48.1326313411263 -3.113051303380964
61.50339560053737 -150.21485264923547 48.26001880274256 -3.070480279219609
61.50530717432952 -150.21605488800913 49.240329887462906 -2.995464048082788
61.50583787314204 -150.220759024462 49.49772854145784 -2.8927060934062414
61.505698455645756 -150.21314073211934 50.21027767397128 -2.767004459495702
61.503879406568934 -150.21905154551527 50.590453734170744 -2.62309240989834
61.50573372184416 -150.2221714582009 51.23038094906241 -2.465513630054561
61.50709963671248 -150.2170931838486 51.6102645858909 -2.298518988271962
61.50511977640933 -150.21644399313934 51.823842699722995 -2.125978805701531
61.505436285206976 -150.22028018957172 52.25533701946407 -1.951309901592872
61.50571831622466 -150.22027046676973 53.21559125262825 -1.7774195151410228
61.50710708297161 -150.21655461650803 53.634063745002294 -1.606668814405224
61.5072585363109 -150.21497265975867 53.79973555071309 -1.4408578468137805
61.5070503150482 -150.21437299846215 54.606659904489035 -1.2812325112350247
61.504455072637256 -150.21796524051828 54.770195902134205 -1.1285136693188687
61.50422554110596 -150.220477880453 55.48978629102443 -0.9829497508831986
61.502902795319834 -150.21659005303988 56.07627182794615 -0.8443966029037026
61.50507800740616 -150.21453636630696 56.491914735316875 -0.7124291966152317
61.50525073330417 -150.21631484257765 56.91326323114043 -0.5864851678691559
61.50283152383274 -150.2160318781205 57.672659199403725 -0.46602817094724025
61.50886672833053 -150.21339179386888 47.53248337510755 -2.991744591771222
61.508145756830594 -150.22098049769443 48.0787188178706 -2.9912419189819026
61.511275366516344 -150.21337668167453 48.651446189378944 -2.9553666232079143
61.50748236857895 -150.2208129468286 48.96165450251154 -2.8882037410314787
61.50738532029952 -150.2182394251085 49.66192421110749 -2.794174315504968
61.508802507821976 -150.21331151007158 50.17151519914199 -2.677825675220052
61.511361516117155 -150.2194938616053 50.58239380362548 -2.5436692210988268
61.51156008377787 -150.2165026976132 51.23006488848023 -2.396050403360552
61.51066703920946 -150.21675838908797 51.72510742763788 -2.2390397122368335
61.5116624866884 -150.22045676846508 51.96541495418007 -2.0763394701256384
61.507712876552425 -150.21563276968027 52.29567653936738 -1.9112062384475643
61.50955044138075 -150.222266359258 53.23398482056097 -1.7463917068590906
61.51053541461914 -150.21761686853162 53.69410085696932 -1.584105975819349
61.510381062858 -150.21391771474518 54.02409091539209 -1.4260065553126273
61.51071999463951 -150.21404997699653 54.43348484964417 -1.2732148194595907
61.50979924214467 -150.21381046618131 54.9936581814578 -1.1263599050488375
61.51099625604555 -150.21342186597383 55.37338706762047 -0.9856489128255889
61.50886765688243 -150.21942209064412 55.79111315811562 -0.8509618374273057
61.51067980448736 -150.21376192066205 56.392699622463205 -0.7219687165498686
61.507925458378566 -150.21600483316993 57.039225829665355 -0.5982629992129397
61.51076301780413 -150.2201911160475 57.403225026249096 -0.47949813037752975
61.51219593785883 -150.21345524373058 47.7331153883587 -2.8552402978760663
61.512522653704046 -150.22029324060324 47.75108675742083 -2.85950760250793
61.51306053991015 -150.21372527776418 48.28599210436476 -2.8300069996192123
61.51453200257906 -150.21822437849067 48.75802134333229 -2.7705028533033205
61.513475161726596 -150.21796899506646 49.2548419504903 -2.68512096364201
61.51570832506683 -150.21856120084016 50.17574929551088 -2.5781431138099276
61.512589756960615 -150.21407913248217 50.37210891489902 -2.4538428090980275
61.51195543153058 -150.21858953698364 50.7548860640188 -2.3163506191069274
61.51612292840005 -150.21809684560324 51.524077647296565 -2.1695401729075106
61.513538595310735 -150.213889544521 52.17474441234116 -2.016930655119331
61.5124283840314 -150.2165197811142 52.33848712744189 -1.8616061434543762
61.51388969479392 -150.21766195374582 53.14490921622135 -1.7061551738843732
61.512643333049155 -150.21629776853044 53.27636244458091 -1.5526351968043193
61.51225063179576 -150.21322417728675 53.968679356754166 -1.4025661390616075
61.51626117803984 -150.21997787193482 54.46164184203121 -1.2569553898971912
61.51284905733444 -150.22112585886865 54.920151647206715 -1.1163537271874964
61.5143508725493 -150.21432474860518 55.549343961522986 -0.9809387727216742
61.514639187115534 -150.21377641978248 55.95764901206249 -0.8506201111986582
61.51382771536853 -150.2136844080995 56.33327947486473 -0.7251581872630409
61.514721193229406 -150.21426669019738 57.065170213678684 -0.6042868038077178
61.515646935663874 -150.2202751449427 57.733554157827164 -0.48782604276906366
61.52081144841585 -150.21543926798032 48.09084768959944 -2.7195930354280113
61.51945900359575 -150.22209684921327 48.36042813938082 -2.696107337124163
61.518347886855146 -150.21455079932377 49.223322174759254 -2.644005342816489
61.51961813685785 -150.2173096960086 49.672789126530716 -2.56710970689841
61.517489511826824 -150.21454358896946 50.08041146367715 -2.4694248157849725
61.516436553364336 -150.22226042751132 50.44782265086448 -2.3549722179139403
61.51822784075899 -150.22141351629253 50.978713326364705 -2.2276527680024296
61.51956833958953 -150.2157421614288 51.37097331341552 -2.091128976898184
61.520502604473386 -150.2139446094204 51.961473026289994 -1.9487246635454658
61.516621603224074 -150.2150329443654 52.56025072353464 -1.8033428080590241
61.51771036007163 -150.22170286492496 53.05287034331918 -1.6574053197691434
61.51920465530891 -150.21593559897025 53.36534892907266 -1.5128197346365788
61.520792674342395 -150.21990865030833 54.161950227752534 -1.3709774015694367
61.51985084853844 -150.2204773084532 54.284065175278286 -1.2327855228024698
61.519929538495894 -150.21841834458002 54.89944028671428 -1.0987318580337873
61.51855762814098 -150.2223715444337 55.290453112205775 -0.9689767765077337
61.51695221977984 -150.2194459698787 55.826811899981074 -0.8434636625975264
61.51754463792222 -150.21516729329952 56.655416701706955 -0.7220361773214686
61.51820471303832 -150.2157487660124 57.08299117594982 -0.6045496983388337
61.51975656821119 -150.22136989704953 57.327760178564134 -0.49096420225060133
61.52514954326337 -150.21948849197952 47.95744491697972 -2.5735308468986244
61.52314910693263 -150.21656614485016 48.624035114613555 -2.555653169458237
61.52142485418122 -150.21397121320845 48.98816734230864 -2.510632761023324
61.52097729088818 -150.22205373959616 49.54010702314746 -2.4419864375566425
61.52192908649808 -150.21727057967246 50.05821894576402 -2.353433020043749
61.52264821742938 -150.2221082655511 50.2865200951179 -2.2487307215408627
61.52267466340267 -150.21828897153503 50.870380245787665 -2.1315381210935733
61.522666970276404 -150.22176085817233 51.738600606375364 -2.0052946505969023
61.521268442939636 -150.21680610500863 52.20006553191247 -1.8731190460779708
61.52370274961044 -150.21732728963428 52.40633186117156 -1.7377272475453884
61.52460175197367 -150.2216588660398 52.9344637069386 -1.601373653822704
61.52336337571027 -150.21783913695074 53.6241715891021 -1.4658207684154307
61.52242343574585 -150.21387439246925 53.94954360230165 -1.3323416873317617
61.521978882563644 -150.21729065950387 54.44952672851314 -1.2017574396499962
61.52276730351216 -150.2158347740319 54.98493532331614 -1.0745071682386482
61.52185520191235 -150.21923665262145 55.54164820307805 -0.9507443873674817
61.523636926648734 -150.22214899080905 55.78517293126081 -0.8304483113743478
61.52210477952672 -150.21717534913213 56.39852502948384 -0.7135367099301888
61.52135818545649 -150.21782046173402 57.020289651777674 -0.59996649530738
61.52255000944639 -150.21344437431003 57.58463578888492 -0.4898101619864075
61.528305720585124 -150.22061044494507 48.59071735186834 -2.4107665412793775
61.527835027543155 -150.21977374531534 48.76526192885968 -2.3724403422085407
61.52808871863641 -150.21842091720984 49.63648752812756 -2.3117149742071743
61.528757439982925 -150.21624297842183 50.06723239364698 -2.2320207336707787
61.528897821836225 -150.22185761174836 50.41845837584914 -2.1368457466167925
61.52790737560592 -150.2218146281654 50.85293636532336 -2.0295980360551713
61.52984105014 -150.219320434149 51.62151575899998 -1.9134861245132926
61.52544910368192 -150.21364290847458 51.76187119804803 -1.7914179621012503
61.52584354667392 -150.21983867073533 52.45503323033687 -1.6659202523779117
61.526580846090724 -150.22008279971197 52.9078772133646 -1.5390821720659211
61.52777504382701 -150.22131704989525 53.50524686924558 -1.4125283008365455
61.52744731627468 -150.21405557226512 54.24081209533445 -1.2874247889205694
61.52698061113389 -150.21708755298732 54.67341050924854 -1.1645201606645879
61.528170081524316 -150.21453512405589 54.82955049585448 -1.0442179396746716
61.528035943017954 -150.2169824126949 55.537594075651775 -0.9266733475125849
61.529294392064735 -150.21886637869235 56.11365876848027 -0.8119020348835599
61.52866593782376 -150.21927031662767 56.42617243224726 -0.6998864966199065
61.52885133032432 -150.22126042967597 57.05582921223239 -0.5906662900737221
61.52922708422944 -150.22201658916575 57.27801160001573 -0.48440125736199446
61.531630771646945 -150.21740739338148 48.310248406667704 -2.2631143612509734
61.53012374965473 -150.21786296345272 49.190229373777754 -2.231059802673259
61.530980705464955 -150.21472837983745 49.518027967476776 -2.177874389416254
61.53417860910306 -150.21581964954513 49.786404589018964 -2.1067014666948967
61.53357890537721 -150.2177313612118 50.44325681467051 -2.0207565730942116
61.53051331225738 -150.22053554480982 51.204775511059225 -1.923192821687308
61.529992035221525 -150.22043422388055 51.68153640164431 -1.8169835850107916
61.533033385456136 -150.21307013311167 52.04258741598362 -1.704823497835707
61.53074129349381 -150.21840226253076 52.44891817916402 -1.5890503906728453
61.52986313576606 -150.21837586097337 52.81537566537796 -1.4715921584753708
61.532782117902684 -150.22020814826362 53.45526085691532 -1.3539430097298237
61.53311978337857 -150.2215546365462 54.10389817586254 -1.2371725197831116
61.529988773166615 -150.21467497671836 54.39129008561228 -1.1219681694502177
61.53250544407136 -150.21740050811036 54.79200816989499 -1.00870786055728
61.53088852911191 -150.21988878949747 55.3978037294585 -0.8975541175938789
61.53313946553772 -150.21817938631145 56.152419469927764 -0.7885576541344561
61.53142949923487 -150.21614633571608 56.57664372814959 -0.6817560586154168
61.53215567553767 -150.21537730390853 56.91076850843006 -0.5772543110047744
61.53311782814882 -150.21892042764446 57.324676088480174 -0.47527750298147253
61.53832204889262 -150.21570304838545 48.8375617999124 -2.0881430387614315
61.53504119057128 -150.21922697663496 49.570078256518286 -2.0420694297724507
61.537504235702016 -150.21837562161022 50.07247673616239 -1.979017149162741
61.53569775366874 -150.21477217453366 50.393174098309025 -1.9019311531032534
61.53610295086671 -150.2166239445782 51.22428388382036 -1.8137096337156426
61.5381172862749 -150.22091744389363 51.371231682350306 -1.7170905545701762
61.53571027408877 -150.21764808782623 52.183514995586705 -1.6145561255919532
61.53862352186875 -150.21490919159666 52.74105980797786 -1.508258282126279
61.53442109004282 -150.22162294830198 52.915276686233476 -1.399969109634937
61.53882334378337 -150.21871589313318 53.460556891835914 -1.2910602189999232
61.53766407068489 -150.21642657891908 54.05634769410799 -1.1825138258110979
61.535609285546194 -150.21374515634287 54.315695307110815 -1.0749655153350897
61.5347434812706 -150.21830700398763 54.8496092094304 -0.9687746605137939
61.53451752984484 -150.22193383065652 55.3670190142153 -0.8641140294130325
61.538122436232634 -150.2139984831729 56.15538204491597 -0.7610665297662649
61.53862231114899 -150.22126272433013 56.6787595112752 -0.6597155275216102
61.53783091725568 -150.21745562114995 56.79787164780837 -0.5602164419219549
61.53643830078573 -150.21430582779905 57.57369820774523 -0.4628411414089651
61.54022645642626 -150.2140741274147 49.13530897440126 -1.9452101110778388
61.542379759102346 -150.21659424485756 49.55376004581584 -1.9057868254594672
61.53981469797248 -150.21997315125458 49.971137762400495 -1.8504061632234339
61.54290185376 -150.21402952419288 50.519963165325706 -1.7817485731250131
61.54295568481281 -150.21729022195896 51.00740001541494 -1.7024613649298381
61.54144921134654 -150.22149135965873 51.60105929057416 -1.6150505475603418
61.54098291905933 -150.217358852616 52.07504243641103 -1.5217899013374079
61.54061179722492 -150.2155679179565 52.5778911901588 -1.4246506809595068
61.542328254951315 -150.21601979867515 53.01848478177499 -1.325255776111853
61.53998276754158 -150.222149738975 53.69786720479182 -1.2248618721129605
61.54334008763789 -150.2209733949389 54.05880959403889 -1.1243717225617613
61.539488309239225 -150.2204779937909 54.5900957772238 -1.0243759137585455
61.5404412862344 -150.21795438515755 55.23620733815277 -0.92521975494751
61.539076576742744 -150.2199222446398 55.417462039708404 -0.8270869550112004
61.539117783689385 -150.21461006919662 56.12709469509725 -0.7300886512380416
61.54122754490275 -150.21890503956172 56.6060644902637 -0.634345239991418
61.543187867123244 -150.21592766525842 56.86176750210174 -0.5400498771163132
61.54068665498197 -150.21337309305807 57.26361706064781 -0.4475062472078519
61.545075487635096 -150.21919172994473 49.488573585536415 -1.7708807317375275
61.544259181615686 -150.2174349694476 49.94309638954359 -1.7226801666049334
61.54615219045977 -150.21866483927857 50.4407748652319 -1.6619701838578247
61.54620390327529 -150.2167783245588 50.961945841700405 -1.591154665919882
61.54383579848781 -150.2140860053546 51.35681459719528 -1.5125142242073584
61.54441645288721 -150.2174698853535 51.873324898347285 -1.4281206980804504
61.54355291503657 -150.2152695240252 52.52904081555438 -1.3397715223297062
61.546800945977274 -150.21492986934572 53.03943114122438 -1.2489476317620274
61.5458966416453 -150.21715277713736 53.694479912349124 -1.1567980034279548
61.54653975001276 -150.21816334680892 54.2339389939686 -1.0641523883480075
61.546242235496116 -150.21992639483696 54.467719310737294 -0.9715611473304075
61.545374819967044 -150.21726941106587 55.18833266588192 -0.8793576849822093
61.544977939815396 -150.21808899839183 55.69541129191016 -0.7877354739480139
61.54353269591733 -150.2210314531424 55.8093147728863 -0.6968290609416112
61.543514129342526 -150.22082861463852 56.41634837966232 -0.6067876540433238
61.546026597613455 -150.21872430942423 57.08145998309551 -0.5178313583198058
61.54387164140089 -150.21523104187776 57.526072486625104 -0.43028361819113103
61.551035745404235 -150.21739646601688 49.71393082595474 -1.637915288593396
61.54898516145346 -150.21565362871553 49.823628363947705 -1.5963680063697416
61.54925283118643 -150.2206143477838 50.569467337200166 -1.5430771646593247
61.54864928710284 -150.21807127010587 50.80370599502667 -1.4802137939584041
61.547880184943175 -150.21969515024938 51.31508295898592 -1.409842614819501
61.54898689143828 -150.21519483175027 51.75377663129065 -1.3338424914330071
61.54883751830448 -150.21762284503544 52.72561386697431 -1.2538456878060993
61.54907824850553 -150.21822825777932 53.04690536690464 -1.1711993971759576
61.54993914254609 -150.21430298702117 53.36425692848861 -1.0869522475891304
61.549965967003075 -150.21693324418487 53.88585594332206 -1.001866881177642
61.54808998467141 -150.21381777917645 54.489349955988416 -0.9164572050419943
61.551125401108735 -150.21562452073962 55.0970171811644 -0.8310458320404913
61.54845368206808 -150.21795218024303 55.58609986450143 -0.7458341804275536
61.55208517837638 -150.21693235205234 56.047648734891276 -0.6609755419985809
61.54828991266946 -150.21648941755376 56.41575766874336 -0.5766408876892258
61.55035140561041 -150.2157963538679 56.847585653754564 -0.49306862508264065
61.54905910118902 -150.21910954286798 57.498373847368605 -0.41059270056315905
61.55443731071419 -150.2199902641281 50.20255043629234 -1.4724917754480054
61.556252804000074 -150.21491592913637 50.261393687998755 -1.4261362756517766
61.55345303598122 -150.22055968730672 51.197959046583534 -1.3707430552575357
61.55625117656104 -150.2181142691237 51.33042760950667 -1.3081715901446274
61.552521009598 -150.21689299054606 52.083336114363796 -1.2401175265897193
61.552930646120345 -150.21299407146844 52.486772365748934 -1.1680568931148012
61.55266627625156 -150.21897270636285 52.83316488089073 -1.09321107773606
61.55316992618502 -150.21327908503807 53.58123903670886 -1.0165349253321276
61.556586431784595 -150.21897934803982 53.90763635779651 -0.9387287027593212
61.55246292920769 -150.22055589477807 54.570640257024344 -0.8602723532299663
61.55323628018676 -150.21988113392763 54.83602110697723 -0.7814777094137733
61.55295759027635 -150.21838755501756 55.44899369731328 -0.702551704267078
61.55596830495846 -150.22151948821357 55.89862767247102 -0.6236618219995469
61.55260626542879 -150.21387935512516 56.5743239609185 -0.5449946885979607
61.55382789629418 -150.2154440356908 57.078481332907764 -0.46680006405248275
61.56114818133735 -150.220159334508 50.22465574364185 -1.3522571350086583
61.5606014381048 -150.21697417161417 50.428508068283435 -1.312264351018304
61.55731965723302 -150.21672691921302 51.237131892937825 -1.2637674642268502
61.56087208458903 -150.21982624835806 51.511694782041126 -1.208433431394537
61.56059558628756 -150.21465000019168 51.905939002726804 -1.1477861341684361
61.560593366515924 -150.21527969066918 52.44362329792243 -1.0831554857228327
61.55778376008526 -150.22044732723575 53.15677691030284 -1.0156456446606787
61.55713138376937 -150.21592766092317 53.53708512009582 -0.946124391475113
61.560852467991616 -150.21828957390645 53.84205402636181 -0.8752341587194007
61.55844640409422 -150.21806638156517 54.54294117394404 -0.8034230741029115
61.55814366464113 -150.22206466369747 55.08375625043087 -0.7309919313503089
61.55859686229601 -150.21385751031028 55.470980356045715 -0.6581507390124746
61.55782498304719 -150.21719656224693 55.98764706754333 -0.5850770100401365
61.560508160776145 -150.2181194185143 56.671146356011434 -0.5119677363221894
61.55717329199402 -150.21311984842401 57.16957952742868 -0.43907825542014994
61.56475015988663 -150.21867623295032 50.442051229339285 -1.203529175641365
61.562524205569964 -150.2175360150517 50.853632375901476 -1.1614145889291858
61.56326160351269 -150.22143288064495 51.30434977982009 -1.1128064871537087
61.565740956264754 -150.2177018587824 51.975621128973465 -1.0590682940555436
61.56350492638911 -150.21969881898576 52.554170013498194 -1.0013935986907656
61.56200432439736 -150.21680214865182 52.96249551103376 -0.9407773974652576
61.562713529878025 -150.21388794453037 53.73241961144965 -0.8780065077761076
61.56506056005372 -150.2136412877057 54.05406570801596 -0.8136694697530485
61.5625219386704 -150.2144945295111 54.656108222719155 -0.7481843121427335
61.56419338795639 -150.2140805799105 55.02100250653981 -0.6818404054880646
61.56303010106856 -150.2152192034132 55.55834266097742 -0.6148486818931272
61.56398992888423 -150.21844223277918 55.77613561598289 -0.5473932546261892
61.562895463456805 -150.2199176939081 56.6080555335467 -0.47967734852236615
61.564692811310294 -150.2174428247545 57.0034193609524 -0.411957588107217
61.57002569951289 -150.21968696696615 50.542731229491864 -1.09829209745361
61.56931439652904 -150.2146495351476 50.9970741910063 -1.0619696439880566
61.56603706782927 -150.2182925124577 51.35860993457462 -1.0194996472352145
61.56990384832537 -150.21852172529483 52.195587837374156 -0.972097344019637
61.569121221609635 -150.21746984769752 52.47186594623415 -0.9208305125487992
61.56590366869241 -150.2209600373112 52.920594414598156 -0.8665935327132871
61.56730034987515 -150.217760974046 53.564957079840184 -0.8100986576242132
61.57018398738945 -150.21526009578304 54.03483353668922 -0.7518846893853606
61.56978085948299 -150.22132348748568 54.51932458970629 -0.6923415123480146
61.57025673188241 -150.22238716122342 55.163311029865135 -0.6317470497590479
61.569915356682294 -150.2197090887144 55.70262578059699 -0.5703115402241554
61.566839329417846 -150.2186822078981 56.22068075213603 -0.5082229913873659
61.56925770310387 -150.21511252696422 56.65061908313035 -0.4456875988732696
61.57167537662286 -150.21455495410896 50.93859247494778 -0.9665244071228621
