> GMT_LATLONDEPTH
> out/cube/20240303A_EastWest/PointSource/FF_1day
61.46647028829438 -150.15545541122108 36.43464019623498 0.3260196619480035
61.46373298995836 -150.15549694676682 37.079679319858066 0.4227980451152521
61.46634954020098 -150.15034231651094 37.55305006322784 0.478249555474405
61.464292840979425 -150.1525516725624 37.91481381632135 0.48345379261810256
61.46441863264251 -150.14800665693454 38.447047815786284 0.42986839664881116
61.46467037734372 -150.1526702050287 38.94314455165844 0.3092919305009465
61.465859954502946 -150.150656322998 39.58568068637845 0.11550311717532002
61.46875013120196 -150.15275299223714 35.65908165791618 0.035243662068675026
61.470279631305 -150.15499698600107 35.80103068280002 0.17943564213439656
61.46845527772251 -150.1513041054874 36.3584772755895 0.2988251985277237
61.47046956380741 -150.15063083610895 37.01261894080135 0.38582007806136387
61.47111041390357 -150.14928897019595 37.718685170073954 0.4323812763407787
61.46796204854669 -150.15197733346454 37.94513665909472 0.4303280784315962
61.46684527153345 -150.1480930868011 38.60568303569128 0.37189378129307377
61.4687304073233 -150.153241030863 39.15031890818648 0.249580905627475
61.468530250563866 -150.14771333822864 39.63354222045063 0.057641219281407426
61.47230330134199 -150.15088227913816 35.33508014942631 0.02412193834107689
61.474784003589086 -150.1507059009342 35.96497607914558 0.1591492807945915
61.474855043690845 -150.14886708621665 36.27343195424147 0.26926063161383085
61.472145253400406 -150.15154244706554 37.16388066311107 0.3472988513878014
61.47202435823356 -150.1503203318464 37.382099988038874 0.38575671783237286
61.47305039468316 -150.1474631733892 38.08643895670676 0.37705587511436733
61.472085864580954 -150.15065895042662 38.72823941331396 0.31404638844189675
61.47167737273912 -150.15558653821762 38.754464504912754 0.1897933459010727
61.477059996128446 -150.15258158401008 35.67902755211473 0.00925333191635239
61.47662832939106 -150.1535782324848 35.90982386326139 0.1356894236614512
61.47967633602227 -150.15220777812658 36.65281336501283 0.23720797550745734
61.47738166188752 -150.1512715444062 37.09378286456501 0.3070349496919398
61.477279218803304 -150.15152953158437 37.274106292272855 0.3381166986640246
61.477043125940114 -150.15369393554474 38.122168516017496 0.3233763822205334
61.47874300577618 -150.1473952399784 38.48650815006848 0.25617269327200537
61.47952436542131 -150.15054114382508 38.935901176906576 0.130049504628179
61.48412682892414 -150.15132193360375 35.75362757677717 0.10902684786074393
61.480608824373036 -150.15509545170482 36.40909957122614 0.20256895460529895
61.48115130429999 -150.15412285844167 37.09453430005162 0.2648667879829785
61.48030818245257 -150.14739237820433 37.49834980407485 0.2892649190926069
61.48153228125596 -150.15118572304672 37.84068612115494 0.2691201152473069
61.48346619069609 -150.15151014589236 38.41824863974601 0.19823188502393016
61.4823955560279 -150.1517481379616 39.14059321371746 0.07057563720869532
61.48620063600821 -150.15067994627623 36.143749234873816 0.07916337397907049
61.48763554725213 -150.15527359829574 36.548836766050364 0.16529047188898238
61.484874793563286 -150.14719871459516 36.8521133399207 0.22069571908877308
61.485838534683005 -150.15162396403798 37.476722326931124 0.23908616166013608
61.48550958811914 -150.14974301061474 38.01244381492312 0.21420977543898834
61.48766960988271 -150.1525539393393 38.35451654100903 0.140265864530309
61.485334764443216 -150.1534325954802 39.10561684977972 0.011630949718562452
61.49340737361212 -150.15091481821491 36.13302591768217 0.04614325712762951
61.49333436073591 -150.14782365875936 36.54244262233592 0.12537424004281128
61.491841972996376 -150.14826094077614 37.0346847319054 0.1744897942325795
61.492270144226616 -150.1477014213156 37.31478080002976 0.18753828458184113
61.491311090742855 -150.14909705673563 37.9186899757104 0.15863350361868553
61.491011635254786 -150.14899753929532 38.47121381831501 0.08234834557903839
61.49721187441684 -150.1496973035509 35.99167084184887 0.008243896767619406
61.49448029421839 -150.14876927594167 36.74909481801865 0.08109096574006765
61.495984254734694 -150.14936822434458 36.755420419039574 0.12452367826713627
61.49487934132816 -150.1549393714727 37.74322995229939 0.13291955816253065
61.49706575506932 -150.15006136666133 37.921315601368406 0.10074209710140221
61.49755326722224 -150.1516788253483 38.383458801029406 0.02291784651172052
61.500222409419 -150.1470973991347 36.60245872671638 0.03618613146245076
61.50048138791851 -150.147387455396 36.92689087067426 0.07444209105093055
61.50240281004494 -150.15295911456968 37.720180964476064 0.0787670537706161
61.50112704054207 -150.15559225348716 37.759761189166944 0.043963019978496394
61.50319457970102 -150.14795321143498 37.24682560069857 0.02146049221599237
61.50586201405018 -150.15594555696416 37.28798924022793 0.022300480498497866
61.34970215442538 -150.1405580506772 39.10030029095821 0.07810522931651383
61.35185372260621 -150.14008229044123 39.541445723484685 0.11101835562297953
61.35376709841962 -150.1423737951427 39.80239902881949 0.07291809631024744
61.35439879070728 -150.13766353813708 38.39532500596585 0.11750789098665725
61.35566075874834 -150.14067048850376 38.77826065675958 0.2209046335899379
61.356057042321254 -150.1397791560826 39.26539302503518 0.2523151162307207
61.35724450098049 -150.13898603676978 40.15180359571289 0.19847012475048015
61.35609994010664 -150.14083302197986 40.621415790504 0.046053228167561744
61.361067524146414 -150.14599536247297 37.804572077384556 0.08070818228441719
61.361931585028394 -150.13930875218247 38.719132226380054 0.2565937277011612
61.36120133169585 -150.1464327108363 38.80320079897391 0.3647267578517777
61.36066057659384 -150.14682416427468 39.28520231435001 0.38647842603120475
61.36046224517825 -150.1391616910244 40.11022869325982 0.3060302726930453
61.3619908128499 -150.14008326436047 40.32413612346836 0.10783706527434467
61.366214507357526 -150.14122773687052 38.04203408429207 0.2098352701926384
61.36702774868852 -150.14452698086205 38.65590734421017 0.3977273453585282
61.36677656638554 -150.14394419205883 39.19594227292433 0.5037391712001864
61.36635378089502 -150.14021445492853 39.545403128366864 0.504893705662886
61.36566427992856 -150.1382866601636 40.023140528405875 0.3842780812021594
61.36466724449858 -150.13977463114784 40.38374613962476 0.1284820783315851
61.3680963415464 -150.14365717801508 37.59328117085305 0.07901783462098426
61.37076432689583 -150.14363343070931 37.939323235082654 0.33986362724528907
61.370567238889336 -150.14517448022804 38.57601742528542 0.5352806574948926
61.37194872596097 -150.14356450186224 38.9828477178762 0.6316951953579569
61.36991056593464 -150.14096183088532 39.37636724077138 0.6013384581466511
61.369502587509984 -150.14156099325723 40.0162546236961 0.4277958624441631
61.37195023623434 -150.1403987051008 40.648163648927266 0.10444424705878656
61.37624327675605 -150.1397229177031 37.63677947826105 0.19043870821140657
61.37609493477641 -150.13856703525767 38.17193134078942 0.46535866809986454
61.37650329141557 -150.14638179124506 38.66017830402301 0.6637124029603415
61.3755494025267 -150.14332823860872 39.16875163153082 0.7447761176981152
61.37608746735608 -150.14033068340677 39.37980208409948 0.6756781376785425
61.37377949430323 -150.1437019893182 40.19115029972305 0.44124089761376867
61.37227482675127 -150.1387122768784 40.378686131998556 0.04454722281571312
61.381104930881655 -150.14152505879582 37.39717316903503 0.2965493467611716
61.376855239562744 -150.1380030985969 37.97578701309387 0.580981232764275
61.379333315575316 -150.14665337644965 38.656722158807554 0.778595259729906
61.37693467369436 -150.1444093679385 38.784299852877986 0.8422253611990148
61.37676095087825 -150.1437505120194 39.43151372377499 0.733404542239079
61.37918773737342 -150.1407501556342 40.2493450670728 0.43691726356375105
61.38161738813496 -150.14097013014893 37.07257956461991 0.056308172205569135
61.38312137955589 -150.14539540969255 37.28262350723885 0.3935935135149905
61.38443687415417 -150.1377292876725 38.18899748622119 0.6826478778998974
61.383219418415365 -150.13893433438724 38.55236041041026 0.8772056305369201
61.38298558918513 -150.1443959029724 39.05483310819332 0.9254286004569062
61.382420943297525 -150.14385725253408 39.66286649792264 0.7821855276093402
61.38148597001093 -150.14400955217374 39.93476020766635 0.427719813047556
61.38753563322224 -150.14380417392712 37.06296086244295 0.13882987094230628
61.386925845606555 -150.14142030778953 37.266507669521054 0.4795296321915191
61.38951237065448 -150.1459807362713 37.75671182999352 0.7684486117457584
61.38653696826474 -150.14515436878781 38.49333082829971 0.9586169918179533
61.38869955487556 -150.14374415646037 39.05549353487756 0.9960865238794469
61.388400818314395 -150.14330819122108 39.576323766897396 0.8275953725099059
61.38698712664425 -150.1401815514279 40.10043838397979 0.41980460746417325
61.39265099417183 -150.1424106533602 37.10364345857073 0.21528371184602127
61.39045360822328 -150.14666928120167 37.261805056327525 0.5542274173212276
61.39325039588023 -150.138660001224 38.146251752229375 0.8387873759680005
61.39236922540303 -150.1450183294563 38.675424290519906 1.0232751220422884
61.392644925430076 -150.14070368964062 39.20375264568269 1.0541009931651915
61.39046646435624 -150.14151509515463 39.368454422794926 0.8694456587371348
61.39464667681174 -150.1457555717793 40.19094990543892 0.41181094562929366
61.39494809899312 -150.13845543519912 36.839540088010146 0.2860800864636734
61.396408371944666 -150.14162298295523 37.250177878818526 0.6190558473690685
61.396322092985 -150.14138755681927 38.22390638656356 0.8956998053255104
61.399224781007575 -150.14201800898675 38.55938732792511 1.0724248395377856
61.39894790373645 -150.13961616183002 38.84027990084499 1.0965941183154373
61.3952793653807 -150.1461441314623 39.42266691997108 0.9008380163955299
61.39586427540646 -150.14125972096082 39.98939234201296 0.4081822206498018
61.400139977268815 -150.14566058468077 36.475531515083134 0.0016623936509909314
61.400103459874344 -150.14682199345384 37.06808089929983 0.3497056616013886
61.400787181113394 -150.14245215813673 37.64912260366164 0.6731935261442601
61.40160894277603 -150.1434259882864 37.92913062228708 0.9386105419237621
61.40082802191015 -150.13924531423888 38.49732688267416 1.103849426206819
61.40020519023211 -150.13978465305073 39.1535365594686 1.1172039648644492
61.39986640714175 -150.1453605285736 39.27188474301015 0.9125421382509155
61.402762382501415 -150.14619557858578 39.92557605105257 0.42040368952614865
61.40616391635217 -150.14375626597175 36.463345780138766 0.06720938684941262
61.404543804957406 -150.1405071555105 37.22535422283603 0.4053301550827698
61.407011803251436 -150.1451117051787 37.48316447906943 0.7160578866250162
61.4038967155479 -150.14205236086443 37.7577624473043 0.9668896491511783
61.40731703740807 -150.13792103775822 38.619662435268 1.1168510183299574
61.40643914038282 -150.13939987237862 39.091477220480726 1.1159679900141635
61.40381043579937 -150.14362992934872 39.26507669959623 0.9068252674328439
61.40409006468094 -150.14672104364132 39.75355954823107 0.4441474281871367
61.41128537431951 -150.14466794534073 36.434308428012905 0.1261120997954691
61.41172709764665 -150.1391992538943 36.97210825004613 0.45123210606748776
61.41233570382464 -150.14140425131652 37.53680049213313 0.7460936749224986
61.40828667482595 -150.14173811777172 37.829391418127585 0.979337306940782
61.40920446213747 -150.14051202395072 38.25969197768469 1.1116951374847575
61.41182768412792 -150.14054538974534 39.21122571886915 1.0970126989042326
61.40988410130498 -150.13882159579873 39.724870383031295 0.8892663953966646
61.41011673184383 -150.14246041312393 40.00928296493532 0.46199896467573176
61.41510761894402 -150.14493223479832 36.635869137444494 0.1767647536689617
61.41446024324309 -150.14438686210642 37.10979212068138 0.48617262860034827
61.41639182684795 -150.14649626178596 37.57325847195323 0.7626233165749084
61.41502466726022 -150.13914280990883 38.19627352859669 0.976334617869162
61.41551292012318 -150.14391798160221 38.72592078019421 1.090747001420785
61.414190986873365 -150.14626665451283 38.823513134623454 1.0648859770121872
61.416852602181635 -150.14255277181124 39.66307475610396 0.8622424402165612
61.41575062197609 -150.1380967033068 40.06207123149685 0.46554329465064076
61.42108783316507 -150.13976900778928 36.46717936635109 0.2182937259145143
61.42055272414888 -150.1425103932894 37.02146600933699 0.5099291450826638
61.42024543036268 -150.13976360975798 37.72623143611165 0.7663458638823928
61.418779391347286 -150.14045122432123 37.8368628256476 0.9598340169748218
61.41819606549323 -150.14234218973 38.6792523914407 1.0572077395146846
61.418529862307985 -150.14524704742269 39.214604898896624 1.0226454956476558
61.42172337740876 -150.1469862763351 39.51446622131002 0.8260994291781474
61.4181115669935 -150.14398227236074 40.03411803032977 0.45389565554695666
61.42382016195791 -150.146628244086 36.587573155819655 0.2506530126510833
61.426081550835804 -150.1434099981317 36.9764230829513 0.5232521950523779
61.42292465389505 -150.13814488748054 37.26034912947688 0.7589603676887575
61.423003389199806 -150.14620501002864 38.1653504662473 0.9324582585662309
61.42414599934212 -150.1405986661127 38.69644461687877 1.014067730584727
61.424386796285056 -150.14414863529748 39.140950502383966 0.9723753332515294
61.425213794976116 -150.14416623978224 39.4406822551353 0.7814465241877139
61.42185292493796 -150.1460719297392 40.22659968197759 0.42890222545893475
61.42773111851346 -150.14648880008005 35.91438480094998 0.0016929764866635752
61.42787483308989 -150.14681907806093 36.71505788202059 0.27444748195483176
61.42774609499259 -150.14363080518277 37.10312457125002 0.5274990080592704
61.42990083911392 -150.14167499091423 37.51455881737607 0.7425558377836026
61.42858113744786 -150.13810926248587 38.08189710963006 0.8967712604125109
61.42627243613949 -150.142091335297 38.561630129471865 0.9637807463404789
61.42854826801189 -150.1458996064418 39.169171199100106 0.9158086001441452
61.428551826893624 -150.1424381107124 39.39729445753122 0.7297181508210576
61.42660782004872 -150.14538067607862 40.059838160196016 0.39370189789837656
61.43210218365953 -150.14326220963738 35.985658231012195 0.03511883883381106
61.43273883349668 -150.14324095436479 36.72600410642735 0.29065516574492123
61.43223225212824 -150.14407282334125 37.03942664409497 0.524249837988998
61.43511381081034 -150.13828480891144 37.47060668836203 0.7191860178204811
61.43248590629817 -150.1408635768654 38.10208108235667 0.8549961428915419
61.433426285201215 -150.1441497935468 38.25239324533071 0.9083391391150427
61.43307418616683 -150.14078364051707 39.186214804771005 0.854581382082042
61.43346504256158 -150.14257947451037 39.63246717611097 0.672904731935123
61.431337519185185 -150.143465649847 40.107819800607245 0.35207574464343616
61.439022513915276 -150.14651054120552 35.77576685277975 0.061895031487098476
61.43575730236167 -150.1464476431566 36.68086781529885 0.30037769408122933
61.4392597245046 -150.14342457075585 36.892714437158034 0.5150465719409462
61.43720447468629 -150.141563013778 37.628109456700386 0.6906855348822172
61.438473676340095 -150.14303592462772 38.08533800209934 0.8090225746507929
61.43887965315559 -150.13817309498458 38.301298239363476 0.8494723110426327
61.438425789284516 -150.14445446958734 39.12882367239237 0.7903190182933635
61.43801004619429 -150.14366293696256 39.44097428266408 0.6130856105732507
61.438942520045515 -150.14190440555248 39.89239861041035 0.30741829458389913
61.44021197207221 -150.13838761442267 35.756133344045935 0.08270760647697653
61.44262576180278 -150.14422119768815 36.74670051793133 0.3046679360102528
61.44227515384037 -150.14414128626757 37.10096294962838 0.5012549403569229
61.443276655760734 -150.1411283694541 37.718739476183295 0.6586248637502737
61.44029907051998 -150.14555706093782 37.787957708012556 0.7604888395377438
61.44166738787995 -150.14474660229106 38.71524076440956 0.7887867524386551
61.441054095893755 -150.14498403140175 38.88220275218764 0.724614534322212
61.442776307122685 -150.14305314370839 39.44911798912137 0.5519825541415209
61.440133544848614 -150.14332548684627 40.076728692878184 0.26170167875990114
61.44526782467973 -150.14103183324687 35.8800876357833 0.09820153685391873
61.448540238419476 -150.1382945187909 36.70977234001795 0.3044300634197845
61.44502762061182 -150.14360656957842 36.83544600914046 0.4840000368665623
61.44599390180298 -150.14140573105996 37.539575504256725 0.6242953922839282
61.44613582226011 -150.14239665253396 37.882711634081765 0.7107970082034623
61.4482182589116 -150.14533426676118 38.746331779761 0.7277417446674993
61.4479265525146 -150.14341878143628 39.03127646694218 0.658883821946695
61.44643779122271 -150.13994361201608 39.353744627929885 0.49070485536067343
61.447881871446796 -150.14702394758922 40.07740787409879 0.21524187407821302
61.44962279357459 -150.1428902814073 36.180269142116735 0.10891494024302471
61.45057254054634 -150.1403203688688 36.61391666916217 0.300368694738531
61.45124029162967 -150.14653618417083 37.240525859607146 0.46413136408818606
61.45201858075959 -150.14588818792205 37.349730423980766 0.5886731671038968
61.45209948078061 -150.14003159057472 38.08617315853106 0.6610341654760423
61.4505227549536 -150.14581716647496 38.514498254613336 0.6674871150513382
61.45199722589654 -150.14534338762175 39.02077928421637 0.5941624905254348
61.45233194926392 -150.13876053085258 39.654388955436936 0.4297459304100347
61.44881367988039 -150.14063093542683 39.77718527435842 0.16732276219335243
61.45612106034903 -150.1381270751749 36.026822063459406 0.11524794518258023
61.45660204421434 -150.14477504948803 36.538664989113194 0.2929683701728788
61.45444762503398 -150.13819056008597 36.929214333687874 0.44220219886849554
61.45529226038394 -150.1431642205829 37.57115811102696 0.5523723800598483
61.455455497557956 -150.14391361428068 37.955694831918024 0.6118664776731078
61.45658284514879 -150.14095472727448 38.62825739825159 0.6086921464048001
61.45622206794066 -150.14196936314568 38.895132573008844 0.5309625676707878
61.45337831947627 -150.13994190377957 39.26079773826425 0.3691260933744487
61.45380306676744 -150.14615420528014 40.02128396363471 0.11700592162863596
61.461975722094685 -150.14451545448009 35.88608654111997 0.11745659846249927
61.4595146803272 -150.14442302552683 36.277879011207844 0.2824965774488056
61.45779095941829 -150.138587154313 36.80842175352542 0.41847146690438697
61.46179624231521 -150.14277480544902 37.259159871183776 0.5156296966043786
61.460403894273576 -150.1397480777549 38.08615349651745 0.5634941794699477
61.459061696807176 -150.14167255039803 38.48192509668494 0.5514873464525561
61.46058514412971 -150.14361200831272 39.21354597617583 0.46927142696534746
61.46159403142753 -150.14294953063177 39.48648556568537 0.3085772033854501
61.45994452525773 -150.13982033177146 40.14029496014407 0.06365758353759418
61.462497816977105 -150.1447115778244 35.97395453485706 0.11566674027721863
61.46597266249963 -150.13825732233985 36.604258344990875 0.26903066239847423
61.46313862167597 -150.1406026904799 37.20998895489348 0.3929408208135746
61.46631490565604 -150.1443382022166 37.47882189070824 0.4783499758990073
61.462744236158144 -150.14120451256832 37.77581938649478 0.51571246554688
61.46598756024863 -150.14437646539702 38.49418097646763 0.49555974107298384
61.46436969201058 -150.13786925456625 38.828013166947684 0.40870436221642853
61.46661886801389 -150.13971287451946 39.30198363956923 0.24775388735125953
61.46590569418401 -150.13941417866877 40.132606397706176 0.0071936527309050605
61.470999652434024 -150.14662599552668 36.22965894872599 0.10990411772300289
61.46764862437164 -150.14347740306977 36.38490719255726 0.25250712171637224
61.467569316023564 -150.14308289150588 37.12035121441079 0.36542757824798044
61.47117870255345 -150.14262984952558 37.413508487755344 0.4402113111481989
61.46683653577181 -150.14352000953534 37.854378339778464 0.4680617413030937
61.46889589199046 -150.14488276003806 38.32215281824967 0.44035851286505723
61.468163695817786 -150.14337069363586 38.907635832800445 0.34875084526287137
61.46926898521766 -150.14613820753533 39.72276424256214 0.18645086505531916
61.47356053243463 -150.14429782008426 35.754155405644475 0.10013498593343242
61.47372301057154 -150.13876772305832 36.43244327139616 0.23278484534730234
61.47380190572558 -150.14044005538355 36.91445318041401 0.33565795838540774
61.474378977496116 -150.1376448374428 37.46657410896906 0.4007980789225818
61.47192082785252 -150.14147413485895 38.10036668623351 0.4200091642976806
61.47389642262618 -150.14629259110166 38.413006613720064 0.38532116807488764
61.47181758013598 -150.14435646490733 38.99216194032316 0.289008070099055
61.47525686158289 -150.14252889233964 39.44727071809906 0.12474759125464606
61.47972642990446 -150.13807195566082 35.90314204161032 0.08630897134549942
61.47681361557735 -150.13915698192773 36.33690175517479 0.2097086001566489
61.47945532712044 -150.1436702565298 36.9732293545208 0.30335655763092206
61.478311478100714 -150.1408559416958 37.67431155064482 0.3597209953361893
61.47766951230138 -150.14635300710742 38.088309203288915 0.37109802388906227
61.47753254876176 -150.1418966682025 38.282388118282 0.3300354480537713
61.479989731960124 -150.1378770868376 39.179906290473866 0.22930990712759186
61.480285183229554 -150.1454592908663 39.50183558872592 0.06301777279241715
61.48313250845737 -150.14519106211745 36.126625604827915 0.06839578921514909
61.48313542268002 -150.1459622918895 36.30128975532065 0.1831595281973591
61.48469456953159 -150.14116070620963 36.99162351250685 0.26831146820894863
61.48067599839359 -150.1455635747624 37.61251924415152 0.31669430557034906
61.48188893449922 -150.13852981164717 37.926569877703805 0.32102690336644474
61.48302235389267 -150.14368794432266 38.611874115559246 0.2742976599297056
61.48142384451934 -150.13766722245066 38.83403798194589 0.1697258988698588
61.484157609632064 -150.14689242406845 39.70453876266066 0.0018201488476636356
61.48913543486778 -150.137866388683 35.93757510193297 0.04641010305120537
61.488748549925056 -150.14365361962794 36.62740036383235 0.15308513123804096
61.48879572762362 -150.1444127527743 37.049307711163856 0.23040604781317425
61.48811882144755 -150.146184165258 37.48610604630161 0.2715618703784384
61.489095818355764 -150.1436257146945 37.9238513687625 0.2696565026476563
61.485883825569104 -150.1398660574101 38.7464138759724 0.21808028103907595
61.48618475293328 -150.13864510681555 39.09355018297689 0.11046835181287193
61.49320954555076 -150.14229521783966 35.99904505605154 0.02042299996104241
61.49023491817193 -150.14688826550272 36.392364603165454 0.11950861804227905
61.48978139776196 -150.14682328213317 37.031857713159525 0.18962078972408847
61.492854808755716 -150.14253741069422 37.64898462247172 0.2242830855489934
61.49149897988263 -150.14050648783876 37.88320914552462 0.2169681926554536
61.49280774316116 -150.1457480187223 38.735568510644065 0.16145165563693278
61.49044879236066 -150.14229468659138 38.76693660400156 0.05176936548097919
61.49742605389812 -150.14609296371464 36.57146877075411 0.08069512777872535
61.49548513002275 -150.14044322270033 37.17132790892347 0.14421801619005287
61.497043461276085 -150.13999675872225 37.453019805976986 0.1731352027412822
61.4980295773466 -150.14030749115858 38.210312701196315 0.16128300610822
61.496871624013636 -150.14037756005027 38.54292155506835 0.10281411910121734
61.502534367001836 -150.1399978706096 36.49379753239329 0.04053172744246359
61.49881589240177 -150.14044760364644 36.87386079695331 0.09799151725940328
61.49867942134433 -150.13793432214962 37.4326777028338 0.12180806879864801
61.499631417474255 -150.1425307908912 37.91772847210222 0.10618034879023765
61.500123995430464 -150.14637604095665 38.700609965863976 0.045631979076101004
61.50339197116013 -150.1424715596028 36.92073635235387 0.048155420604378676
61.50591023184237 -150.14599053684537 37.42471819704388 0.06750783212036977
61.506694400368275 -150.13859558314527 37.773888607865764 0.04885530475664421
61.509752102124736 -150.14200607525007 37.74019742815891 0.011471530060279036
61.35350521524399 -150.12862396217272 39.38778057416286 0.06516780909333508
61.35033224742193 -150.12932958564946 39.82899960455745 0.08192150224818334
61.34984512138138 -150.13723203762598 40.69555295918346 0.025180430714526438
61.35636535216295 -150.1335970429556 38.859157638251574 0.12451449386203939
61.355016233781406 -150.1285441143656 39.44161379925684 0.21502371190551153
61.35582389880951 -150.12915486933923 39.958144210263576 0.23145165807431053
61.35615628799544 -150.1362003320612 40.49491799300514 0.1573615632737636
61.35890376990997 -150.13381298688694 38.73228152990729 0.10298576469006489
61.360967754777704 -150.13064965678575 38.92198054842702 0.27141340443048523
61.35919743064904 -150.13559863840652 39.40601037973124 0.3645960159883404
61.36072660516981 -150.1283598794945 39.81446006642174 0.3682308707688943
61.36181659564967 -150.1323419910466 40.695625679592936 0.26325609602828576
61.35921547692695 -150.13248245441557 41.21258844232352 0.01573260049914933
61.36404899460043 -150.1344018072274 38.64997376330204 0.24283858755738216
61.36349217020312 -150.12859451308242 39.1147975067144 0.4203496480173904
61.36508856971714 -150.1357325834635 39.45504310142203 0.5028903457797338
61.36427004504847 -150.13602364625817 39.82263668339561 0.4746964981463808
61.365962582841775 -150.13399209152132 40.320897723076826 0.3199775527957843
61.363934783435035 -150.13400849560557 41.18281677119341 0.008769725376729808
61.3683322626153 -150.1324852407267 38.07313568596742 0.11888574660810701
61.36787773779166 -150.13283507548994 38.54697848648153 0.385183446832307
61.368272237156994 -150.13310027766525 39.09146729891717 0.5631772516807801
61.372134116509095 -150.12993244284544 39.57718257027659 0.6201794939468843
61.367980517297156 -150.131393025057 40.023630422496524 0.5402959942960439
61.371231845079656 -150.12856051331312 40.331434766864774 0.3176181631273429
61.37483621904514 -150.1340437570475 38.244713658493886 0.24272795123570767
61.37406223914296 -150.13406093748932 38.26943890657149 0.5222206198262905
61.37576139907409 -150.13281262529568 39.14632651852882 0.693104719253992
61.373207350145734 -150.1320583130859 39.624684087315174 0.7140181884664373
61.37286022322228 -150.12927197453683 40.161157322142124 0.5696095819013146
61.374696687537515 -150.13396071222215 40.361236977833215 0.267522405659377
61.37802760862469 -150.12935488455835 37.27919454750184 0.003976729787521637
61.38095571467071 -150.13283625739908 37.7660778154547 0.35936145118218
61.379734944655816 -150.13632647188567 38.27918091958718 0.6463007215304576
61.37877529314841 -150.12879804666926 39.21436891215391 0.8064068350023793
61.37967917199403 -150.13696112968844 39.407742516465795 0.7899714174620408
61.37756044268356 -150.13237968631506 40.24968760188698 0.5802050179502678
61.38042847490655 -150.13675376315373 40.71994255835001 0.1967188560805617
61.38394334229091 -150.12975889025964 37.63272963225012 0.0980872547733508
61.38239447414722 -150.12836509443733 37.934613192368246 0.46266959824365916
61.38132315784681 -150.13392132841153 38.39329709233027 0.751565065004654
61.385562639549036 -150.1325458693844 38.81191997991016 0.9017541161591306
61.38159993646199 -150.13024711802436 39.35460625726671 0.8565030772485094
61.381685188033224 -150.13184077794003 40.07770380221354 0.5913043944289492
61.38426502172598 -150.13352411573177 40.425523327810815 0.13167373811621524
61.38584342850777 -150.12861531703768 37.7142779392139 0.18426775469607362
61.38958106869009 -150.13627130723023 37.90998758124249 0.5499551641651204
61.38840610570359 -150.13684351602652 38.45680613144049 0.8355413002171582
61.386795476299966 -150.13752410790494 38.947661152705464 0.978793394207701
61.38703637335222 -150.1303192300168 39.54809961683664 0.9191533265295877
61.38828840786355 -150.13011184629514 40.00857655519802 0.6127196965604723
61.38711839356632 -150.132985759264 40.65659744909494 0.07861389578231923
61.39349679700333 -150.1342421286338 37.68937038785311 0.2631390413154687
61.3934298843427 -150.1359546994203 37.80583313016165 0.6232915390421188
61.390648824704485 -150.1299683724254 38.38941209599615 0.9011344046174359
61.39062437150466 -150.12875788557713 38.800527972099 1.0394298805297197
61.39221523077802 -150.12851250268477 39.41041819181189 0.9791118566241442
61.39442427791589 -150.1294071263436 40.05304213027057 0.6418357231890257
61.394376220818856 -150.13072004035007 40.67104100048817 0.012442996185029203
61.39578310959002 -150.13639747666144 37.59957730325885 0.33747709318922453
61.39777119619869 -150.12936027170787 37.791003380368736 0.6883497423842639
61.39744753556425 -150.13553861608506 38.60015798000035 0.9564957856157509
61.39597458420434 -150.13565499836173 38.961706372606784 1.0895706122531361
61.39603683239212 -150.1297893505945 39.61523774650277 1.0309095800928076
61.396574023510325 -150.1286768901659 39.930001028509466 0.6691974748003046
61.39960613961753 -150.13273858744412 36.950455799463946 0.029061078992672976
61.40024112417858 -150.13564304438293 37.39791388927606 0.4070716578799748
61.40183572416197 -150.13467329320972 37.7561319998629 0.7467773790135911
61.399396026620586 -150.13088295224543 38.61343422537559 1.004097742571864
61.40047221152031 -150.13123527129144 38.891805205328765 1.1283125201648148
61.400780780157 -150.13282389278595 39.6871017355216 1.059325864947482
61.40110248542672 -150.13546500869768 40.16674735240853 0.6923157666988025
61.40613319452103 -150.13388925323744 36.950098809099885 0.1038735738396457
61.406304739998895 -150.12827928446242 37.28638973474291 0.4700763455209633
61.404953810279686 -150.1327386785332 37.75307822324122 0.7960322280051569
61.40380668185223 -150.1292819699347 38.485713742859495 1.0393694857055076
61.40585384265323 -150.13321266713197 39.11080699469317 1.1486611237757218
61.408088078710136 -150.1307216987839 39.25450174817589 1.0627802413874083
61.40558395300613 -150.1357870444675 40.24230760909553 0.7116941770535705
61.40715417488457 -150.12892939405603 40.443472913278924 0.10108060891618824
61.40961922605151 -150.13398478589085 37.00809903281086 0.17156618427262332
61.410278343072164 -150.1367043638417 37.37108577583639 0.5224296004097473
61.41072688149589 -150.13565378430218 37.9506262101468 0.8307588783891643
61.41006510133977 -150.13592948048452 38.608573852903874 1.055660401462589
61.41122279188703 -150.1293524581663 38.98504125720843 1.1468464817501045
61.41013918931042 -150.13343989344168 39.56041459286609 1.0496470920586152
61.410407006765695 -150.1344734806306 39.95623689101218 0.7214052963712283
61.41059435611608 -150.1282974690797 40.7100423271717 0.17537043693716375
61.415126525976284 -150.13486898245475 37.03379211896014 0.2291912274432869
61.41379696747215 -150.1284644135597 37.40645607974123 0.5611886479570856
61.416916375636056 -150.128492369082 37.965586390824306 0.8483226013125322
61.415181068545444 -150.13433633404148 38.61216352755113 1.0520085438501048
61.41279766048352 -150.13124139177594 39.011141318471545 1.125898575321795
61.41384596745234 -150.1314161194802 39.69813699599022 1.0240112054859227
61.41405106573133 -150.13495738958378 39.95972951700143 0.7170926249064613
61.41310950851039 -150.12985465254982 40.7295921285242 0.21441077277055953
61.419960043030095 -150.1361705053646 36.97811840955978 0.27531849978392753
61.41794054047597 -150.13123552450978 37.58607739612425 0.5858016194002522
61.42006006476684 -150.13566102350669 38.18948055961748 0.8496900467277947
61.41929574808165 -150.13326123849075 38.57164111334848 1.0316416252352232
61.41792481958408 -150.134290326054 39.051695516546374 1.0903590279189548
61.41838622721065 -150.13690555932845 39.62387002537143 0.9867887298040162
61.419068047611105 -150.13417648848323 40.155508327954635 0.6970366746093396
61.420241906141946 -150.1310939392159 40.542032640902335 0.2259399328117127
61.42225356465519 -150.1317056232154 36.51103580626784 0.000124797842712008
61.42411012044454 -150.13005906688534 36.892467308925276 0.31008056274121265
61.4232483085631 -150.13728458898987 37.461114909663316 0.5976109264326229
61.42553883626275 -150.13641915654836 38.19525059464926 0.8376821161017161
61.424057784319004 -150.13078057006229 38.47076786072056 0.9986054721220882
61.42414071844972 -150.13356881280424 39.156473309442404 1.0438631234425864
61.42254984017939 -150.12996729135241 39.524708209830386 0.9390390556611551
61.4258980313078 -150.13132035869975 39.80446444762695 0.662088236295022
61.4247350153352 -150.13250366890497 40.73360529939636 0.21496062168156888
61.42936070488564 -150.1322976923538 36.31886149109663 0.045426844919911835
61.4306310971409 -150.13451168284385 36.83246896393651 0.3346508988457658
61.42844564202258 -150.13266966155928 37.50068237411032 0.5988317075114128
61.42703663411957 -150.13355965365992 37.986203088455774 0.8154024873735878
61.430713771554814 -150.1307399307951 38.72440539462768 0.9562624884821896
61.42698795474242 -150.1323610076116 38.842604946798765 0.9890180377320558
61.428650705450316 -150.13259297345152 39.54922437643519 0.8824518982188969
61.42751891163365 -150.13317032217648 39.83046073256418 0.6151883083831862
61.42641888499455 -150.13144026285585 40.50479617718977 0.18749765150098532
61.43481461515453 -150.13228584570845 36.26703546236993 0.08231766594906709
61.43412726069975 -150.13023163377977 37.09663389607675 0.3506535731111109
61.43504540502711 -150.13305949819355 37.446245268405264 0.5918018008209504
61.43358870573086 -150.13055493267177 38.08621055818536 0.7855726935347626
61.43378177783884 -150.13347425985418 38.72187462177956 0.9071567142495194
61.43482124214 -150.13614307838685 39.053560466887035 0.9278014516840699
61.43400907879831 -150.13158962274434 39.254786446988554 0.8191159801399565
61.43097819693091 -150.13630244314368 40.2203946376021 0.5606392556145758
61.431928423986264 -150.1315456583863 40.54919413255507 0.15172157511618933
61.439050114841514 -150.13474068704073 36.31476184835147 0.111857050600149
61.4392327191915 -150.13411125731952 37.066462478613495 0.3597425161446272
61.436721162199206 -150.13447086772084 37.52716454342513 0.578628297759303
61.43925100012252 -150.13352653897863 38.05912821792327 0.7504648506897601
61.439759938577474 -150.13037460172512 38.410424959561176 0.8533901370532605
61.43957973534901 -150.13312703344053 38.93216954735122 0.8620886907573769
61.4376237407042 -150.13075753542395 39.623185026172 0.7513655031929763
61.43789834450463 -150.1309148322913 40.05524598138454 0.5026997258795093
61.43780678604076 -150.1339178478308 40.30023407714259 0.11499573702452529
61.44270904169099 -150.13400405937796 36.37823276420954 0.13508741392817902
61.442039397977325 -150.13176209796373 36.76534593201604 0.3633781866746421
61.44270289423509 -150.13117429162034 37.26778293005572 0.561089523623186
61.44157884293579 -150.1348830982878 37.86500614882752 0.7120342792251495
61.442669202958584 -150.1317587033891 38.34383029325275 0.7969895749099682
61.44240815237223 -150.1301641092658 38.97628164227949 0.7940037082237709
61.44370518156888 -150.13036677367694 39.28359462823677 0.681565251725849
61.440614257680686 -150.13510794498018 39.7571169915823 0.44401517869847273
61.44160386329422 -150.1282209539635 40.686511105687934 0.0800105833510812
61.44873594226798 -150.13747765570582 36.53098676731391 0.1528978659374208
61.44498310475001 -150.13006944582813 37.2052983505998 0.3627394443894721
61.44755935327272 -150.13465403499552 37.297452142071116 0.5406265084933387
61.44832814471718 -150.12968759734338 37.789564723504014 0.6719830601226902
61.44531270095173 -150.13420120190708 38.74101196391653 0.7399537903584453
61.447717129413505 -150.13616249404905 39.19899867746713 0.7258040162655246
61.44568309955068 -150.1286752295534 39.28457871280391 0.6117944181130914
61.44648102206724 -150.13663810327606 40.15106452586087 0.38533800658042977
61.44824845097084 -150.13635728250463 40.68381634862385 0.04482988390964277
61.44936323210308 -150.1324523181858 36.54691377537948 0.16596793426922674
61.45175581100753 -150.1322183591599 36.998030315726254 0.35869596308813967
61.45281766154678 -150.13038831772607 37.29655599787315 0.5183206272992413
61.45324034485634 -150.1375409026664 38.2023607509148 0.6316680962405349
61.45262748875197 -150.13322832319244 38.4417171943159 0.6839794416999903
61.45085078794119 -150.1370785317567 38.80508885297083 0.6594098133162762
61.450251114947996 -150.13121615206742 39.54666752563482 0.5435755594227956
61.449535327692764 -150.13279413667271 39.8959297611904 0.32650176969094796
61.45228776882882 -150.13017358967477 40.734904217786806 0.006221275217238274
61.45639947286746 -150.13477516811943 36.66058336239466 0.17475236549080922
61.455292788157294 -150.13714806236962 37.085127629879004 0.3517971770314075
61.457190839443086 -150.13402548099924 37.629306102392135 0.4948428011151637
61.4547382287591 -150.13665624776283 37.75118622284891 0.591935052557508
61.4560512618002 -150.13272218108142 38.340769139123225 0.6301142415118786
61.45418247437198 -150.1288829798843 39.04586886068363 0.595945784904698
61.454430994589636 -150.1362601989409 39.50253722148544 0.47768681931056184
61.45642253559415 -150.133652515798 40.18637866624189 0.26721308822855266
61.45922977659496 -150.1333159306669 36.52299553908323 0.17948749793394123
61.46063467922512 -150.1314646598817 36.83554791371104 0.34227522367395224
61.45974990358137 -150.13073642860118 37.44412556119775 0.4704219384060883
61.45855196326412 -150.1319612296546 37.7727526631352 0.5530179175982666
61.458829579053734 -150.12946633933328 38.36078527819838 0.5785832063970242
61.458040906928474 -150.1339862845176 39.0846358608883 0.5355572551461764
61.457853322495716 -150.12954826917544 39.46329712614405 0.4140764364922339
61.45797509727299 -150.13139354531842 40.20361513189244 0.20711818503116391
61.462374051112796 -150.13680771912308 36.224072171664595 0.004570172780337193
61.46452845029655 -150.13009214990635 36.51433092832171 0.18021802448370036
61.46656175439321 -150.12958940694259 36.96228353823949 0.3300805494585264
61.462535157646066 -150.12995270091608 37.58313539887479 0.4448846087491773
61.466785662801165 -150.13287234041422 38.239889489036074 0.5145907474579088
61.46580605361621 -150.131341496448 38.67822892258055 0.5288819222445045
61.46591114277776 -150.1318015093669 38.86629248257925 0.4775697557418421
61.465081855623 -150.13290376431942 39.72443170382359 0.3520241296933001
61.464484413451 -150.13039530662084 39.83213078383868 0.14576979131158535
61.47126753444076 -150.13636650694534 36.02496294905492 0.012206943971464606
61.46973105622439 -150.12991724128236 36.378198952510644 0.17684695605112583
61.4686388343955 -150.13620620935419 36.80717779062142 0.31496031564558785
61.46689659735771 -150.13437173625798 37.356099750196734 0.41777742970989057
61.46802004936644 -150.1324996107521 38.02391842628342 0.47596364549564424
61.46770599450433 -150.1345263518538 38.470112815764026 0.4800820212314006
61.46758783887902 -150.13385916764418 39.02061382456888 0.42090894184765487
61.46710596805472 -150.12856704789334 39.65312285050803 0.2905917121392111
61.46904114352638 -150.128220781762 40.119208129966445 0.08291998303743864
61.47366553694644 -150.12865319660142 35.88023472721529 0.014787615178043632
61.475400790864136 -150.13478045161193 36.73666815133785 0.16920343208074928
61.47286108296312 -150.13288002374594 36.86278881773986 0.2965665152627917
61.471439610137345 -150.13758907395882 37.41096679832144 0.3885366567485641
61.47505578916792 -150.13351927761497 38.16386801369094 0.4363420585548104
61.472611476214745 -150.13491741654744 38.404821960405236 0.4312029269548896
61.47577242094516 -150.13365671360944 38.90636577212516 0.36457491135816594
61.472701970205634 -150.13564849022242 39.356172136580355 0.22912379508576827
61.47344639182912 -150.12897293761992 39.860207415649825 0.018860799449405344
61.47802713766724 -150.13668068880713 35.82071940018734 0.012266023113534833
61.48001265732156 -150.13530283849013 36.51697805555737 0.1571137296309548
61.47594242976027 -150.1330929553044 37.216131330788286 0.27456430151589417
61.479555202285916 -150.13610315669618 37.65429656806684 0.3566478306450881
61.478935198867084 -150.13621475032426 37.8857898479179 0.39504979577278887
61.47636345441489 -150.13734357637338 38.40436850256582 0.3814965126158076
61.47859437378768 -150.1289818873336 38.82311377643509 0.30795566529816437
61.47946361498192 -150.1327009899574 39.57193648472003 0.16750604661148702
61.48112103058831 -150.12974233925976 36.15799257932352 0.004627932350539304
61.48306680834448 -150.1308924076519 36.609925809061885 0.14045886121744716
61.482056265017796 -150.13266297565545 36.75174427786501 0.24871207451312088
61.48105247860455 -150.12955065060123 37.5439329076294 0.32175002449433016
61.48429859883874 -150.13054199514073 38.15717090120292 0.3516509381983295
61.4816818691979 -150.13064855177964 38.62627566409669 0.3305637884722461
61.481428480300714 -150.12931628000908 38.832637697227064 0.25089219080259906
61.48100951887896 -150.13554071978598 39.377132801792804 0.10610921047654295
61.4884326464175 -150.13458578660888 36.37965096280689 0.1192082433974187
61.48671121651114 -150.13352564490813 37.045300663899916 0.21889945867451005
61.487231675695604 -150.13539208875278 37.499758239102796 0.2836699370201679
61.48538528813316 -150.1326626804283 37.914840281918835 0.3059626076068435
61.48773157141644 -150.1301740263006 38.41992173107756 0.27831689552390665
61.48679075424281 -150.13278662269101 38.801680851455515 0.19355158277628604
61.48562410930168 -150.12883576446558 39.285056745829884 0.04554462311324354
61.48988586727714 -150.1306983338253 36.65193190876994 0.09342831342243879
61.493796197094674 -150.1295509815058 36.79516068508838 0.1851464759609026
61.49360159043512 -150.13359509440681 37.53809791626681 0.2423997529800297
61.49218506123468 -150.1351475334279 37.817389502004524 0.2579934458092193
61.49089590280561 -150.1289592141583 38.37543106612101 0.2248558695025072
61.489509742488714 -150.13197840186024 39.052988764663205 0.13622440994208873
61.49720242257681 -150.13687151723622 36.632053918171096 0.06140403643220844
61.495331644601144 -150.1364582603658 36.99671182132453 0.14573538408160436
61.495182060366474 -150.1340893739222 37.4851976499495 0.1962348603445343
61.4947210687468 -150.13302286693454 38.069876556300365 0.20608067644617337
61.496056340356525 -150.1369964281077 38.432953526307216 0.16860032110756176
61.495840478386235 -150.12995533572507 38.88319518608585 0.07745623300219766
61.50195196175045 -150.13467653825586 36.55046585857003 0.027177898790744746
61.50030560754209 -150.13623660520972 36.999693692616155 0.10463087556006047
61.50002874724755 -150.1347698305621 37.49407671012154 0.1490481139586449
61.501886095628336 -150.13614897164467 38.14468720946934 0.15399417992439607
61.49857884211457 -150.13604561018232 38.49895344773046 0.11320592420551073
61.498711855124206 -150.13005908056618 39.06048646477771 0.020770884111373563
61.507220746069095 -150.13269973392266 37.00085366246498 0.059080239475725146
61.5046119871109 -150.13529413643758 37.34370202665047 0.09807458913184158
61.50467935562677 -150.13424763200427 37.984134869204915 0.09894474554298756
61.503230621035804 -150.12951497876023 38.45926241296224 0.055838943106274685
61.50872219823815 -150.1327890582268 36.87875780521495 0.010478527855149754
61.50873198921515 -150.1359322925949 37.551518191570516 0.04464349837513019
61.507493708320276 -150.1295476810833 37.821381707566076 0.04216039093460898
61.35039079430848 -150.11998169056966 39.91577850177633 0.030343773068780236
61.35409689939294 -150.12795736751974 40.40521735829333 0.040021675594200355
61.35661442168624 -150.1277066471693 39.41293027481678 0.10340851091886755
61.35822364468743 -150.12253228795464 40.025692454739165 0.18749056368137584
61.35617158671493 -150.1232226198531 40.35765185894287 0.20410005121348632
61.354708267124074 -150.1248832502633 40.834430522003736 0.11554235282235902
61.36312158027472 -150.11897842518542 39.036917654650495 0.09521595522894766
61.35985145424224 -150.12656003748717 39.60560590308376 0.2535017693499894
61.35928846628165 -150.1242409739169 40.113762636146085 0.3419530052811276
61.359756462799695 -150.12079713532336 40.66074934314581 0.3505899196713593
61.36249987325597 -150.12120269893595 40.969255770420354 0.2298297862520271
61.36372097144042 -150.12696946197002 38.89919563795321 0.24161725713404839
61.36586999345769 -150.12092310638815 39.4401136830078 0.40251715499125484
61.36525847871572 -150.12315250399772 40.01767121400409 0.47144274400407715
61.36711584016719 -150.12317859359263 40.283896935564826 0.443968558186296
61.36406555061382 -150.12534318439629 41.04366890931922 0.2746980879137037
61.37184708659117 -150.12072823115952 38.37536367354494 0.13401686212931874
61.370511141324016 -150.1218332905287 39.15484483289334 0.3916575628455406
61.36893579727353 -150.1206637645831 39.609176720922854 0.5365197478881163
61.37162251735375 -150.1251161469067 39.93669070542885 0.5571043358058805
61.36836688311515 -150.1198936257484 40.53169374196374 0.4635189803437261
61.36877844750627 -150.12569335158105 41.21459305085319 0.23229519498091086
61.37616382018375 -150.11963274993306 38.39225905381856 0.27177788506555167
61.37475394728586 -150.1252288780609 38.87178957979082 0.5347066013419958
61.37248792541197 -150.12743193529937 39.53438197767095 0.6482303645036565
61.374640817473804 -150.11933839078827 39.79285871112865 0.6002431909805658
61.37618230505172 -150.12481827329898 40.42910030068293 0.4216840960573775
61.37393899794903 -150.12064984086845 40.82104382842656 0.11824247494213912
61.37774501041548 -150.1230784867389 38.13580389958265 0.025497067973090058
61.377546555564706 -150.12015390860253 38.64320652883064 0.40062037552227675
61.376772752727966 -150.1203131536278 39.16913536064644 0.6625117758941937
61.37891116075177 -150.12768471067392 39.280365099688495 0.7422264272804888
61.376843387219054 -150.1194551797033 39.84113638347511 0.6252004550537459
61.380584952416854 -150.12646912425524 40.6785112444107 0.35875165602219217
61.38364140096526 -150.12541309422352 38.130313266183386 0.126953556249818
61.38277177861729 -150.11951112922029 38.62921281955239 0.5106699615991941
61.382648442447085 -150.1233355542505 39.234463439559 0.7693323387143257
61.385271834510306 -150.12775204648904 39.64497961844614 0.8266033495694869
61.3816520282958 -150.1196105486785 39.926240931861244 0.6584408327834835
61.38423698601007 -150.1212325084125 40.361342792341176 0.3141211200842263
61.3890006289558 -150.12040411911798 37.834224770658906 0.21532507026745168
61.38724556621241 -150.12035576227257 38.70417008330657 0.5965116915611943
61.38630375681327 -150.12209392822714 38.755286179569715 0.849128115156644
61.38932749140606 -150.1281486872681 39.41642144166128 0.8986427690628525
61.386042150085544 -150.12642743541127 39.98746783697248 0.7051282438449253
61.38575488301818 -150.12209367894678 40.265601843889456 0.2976093489097548
61.39047105922419 -150.1260603063674 37.963630992328284 0.29308420801102764
61.39101044860556 -150.1217131332116 38.264314039566266 0.6618690900470937
61.39207573807076 -150.12186485014803 39.04857523548322 0.9012517653584735
61.39152408525448 -150.12566389619542 39.62206265782664 0.947850913925536
61.39276861602211 -150.12066480697126 40.045949034483186 0.7536622742602186
61.39079635479781 -150.12683402809012 40.57594198529796 0.2837378695718132
61.39780423139669 -150.11933938177785 38.24618570211718 0.3685474153233324
61.39512613653607 -150.12254856250763 38.33493099890849 0.7225511775827358
61.39479337157005 -150.11913190854133 38.87408054256851 0.9479952566535628
61.39779861614034 -150.1261131603253 39.51316012145849 0.9918840599676824
