> GMT_LATLONDEPTH
> out/cube/20240614A/PatchSynth/Synth_FF
35.87253477873905 -120.53265203060374 8.778456530972482 -0.9839383731769712
35.87508931906152 -120.53263123457067 9.344334291120495 -1.0319697985301661
35.87366706228515 -120.53306457314486 10.19895079829015 -1.0481606438983635
35.871723226047514 -120.5318527060475 10.41234981021743 -1.031064229751197
35.87429579383066 -120.5333809072477 10.75599922537392 -0.9821960651536416
35.87438485547074 -120.53198888698051 11.333735021804689 -0.9057737522871955
35.87516141334939 -120.53071109665856 12.23956316950696 -0.8080180086867103
35.87129367962527 -120.53526478352343 12.260261115207912 -0.6962006525663607
35.87127349257247 -120.53536879238628 12.956449013125754 -0.5776678270892047
35.87340348596273 -120.53543839635371 13.625909243439285 -0.45903261956720753
35.878152169089596 -120.53351100261692 5.726389752434969 -0.4445652766555817
35.879498226101354 -120.53476476161617 6.154480133097461 -0.5852276059626644
35.879431170493866 -120.53072939454863 6.743472791960626 -0.7379429970242781
35.875817243272714 -120.53203718686252 7.063893341886103 -0.8976154404047221
35.878699727196704 -120.5315014940569 7.306510660568305 -1.057107838465564
35.87814132921379 -120.5309540203472 8.20951927742892 -1.2075249267355534
35.879560365929784 -120.53130289493409 8.640195472547141 -1.3389176188977836
35.87714072881026 -120.53434950247235 8.896584646986168 -1.4413908333169065
35.875967221373244 -120.53585897308514 9.722507340758845 -1.506463440149923
35.87742449676214 -120.53200107401908 9.907855268889298 -1.5284043936944625
35.87656159451874 -120.53131779420231 10.278215747780733 -1.5052148888779537
35.87841882287236 -120.53464096112681 11.079379366933953 -1.438986123855834
35.8787054909301 -120.53084396176506 11.4725577781708 -1.3355290319065802
35.875570914791204 -120.53131927470926 12.173725775847723 -1.2033825581034148
35.879388502074704 -120.53232321676425 12.543314803241469 -1.052472809224059
35.876553366711825 -120.53387103231677 12.814384924140992 -0.8927535705595984
35.87918424136243 -120.53449412126118 13.489930179755335 -0.7331030343605904
35.87770714294756 -120.53189788573424 13.763359339891945 -0.5806262596137833
35.876677009133765 -120.53188711302803 14.673952741006076 -0.44037943192476947
35.880370308352376 -120.53075091434721 4.875158155884346 -0.4788267977747706
35.883267805252075 -120.53498102664706 5.409136754282427 -0.6361399726582873
35.881870124596354 -120.53207070324228 6.012656317736027 -0.8125985820467851
35.88096476756042 -120.5355268053341 6.436407058243543 -1.0044564815389185
35.88105794422382 -120.53339014321669 7.122054484431742 -1.2054411471048598
35.88377430144548 -120.535048939939 7.543363926474629 -1.4066354076268
35.883129513685674 -120.53553267240792 7.92270015586376 -1.596799885529195
35.88128991368732 -120.53597791807486 8.423083252307984 -1.7632512613423383
35.88418727442745 -120.53574446171771 9.114047661846284 -1.89328593826499
35.88377050704878 -120.53550224222019 9.490973988357638 -1.9759575983643725
35.88269665124819 -120.53168453849902 9.844582938650642 -2.0038426872149766
35.88086408314007 -120.5341450791202 10.611175827732334 -1.9743469223231132
35.88140304287468 -120.53364010409314 10.861544911074393 -1.8901828054004317
35.883881966863335 -120.53139216562415 11.534987320777406 -1.758875580888884
35.882313276029585 -120.53073900309673 11.830306412928167 -1.5914442046690471
35.880424941519365 -120.53211876801593 12.410933380758465 -1.400629896812225
35.881212025149665 -120.53444855222102 12.871756509147975 -1.1991195444874465
35.88154673667743 -120.53570884741923 13.693661541684142 -0.9981283590614493
35.88159159542012 -120.53255917716324 14.151536658295704 -0.8065307329842495
35.88384277993121 -120.53322647300806 14.73347714201399 -0.6305472202021376
35.88080372632257 -120.53568620874859 14.870722961607349 -0.47387072147202897
35.88591266966661 -120.53543777334494 4.739308744814109 -0.45738086186175
35.88489580431825 -120.53218863296263 5.1534120473583975 -0.6187718306791833
35.88753767739739 -120.53218460737479 5.351016771356812 -0.8048565477597924
35.88688934622817 -120.53369965509671 5.982657982161294 -1.013893139516125
35.887529259048705 -120.53248779086192 6.640925083932443 -1.2416008203390236
35.88556432764385 -120.53141675222109 7.215276626750308 -1.4806527486666625
35.88481400458626 -120.5339926786343 7.266971034255457 -1.7204908142942814
35.88473555285285 -120.53434739180538 7.874414001232069 -1.9476744079794799
35.886165838816034 -120.53310976125113 8.401520002818774 -2.1469179040518878
35.88432904088032 -120.53266150549518 8.769562264067702 -2.30281775493291
35.88532252351413 -120.53594515991979 9.271023712408798 -2.4020404993631232
35.885980353163056 -120.5325301728818 10.019788368407111 -2.43551599125175
35.88618816939528 -120.5351762088447 10.55910817481566 -2.400069649905833
35.88675744397844 -120.53399105168685 10.877900400425094 -2.299020636680974
35.88511529590103 -120.53148858829282 11.656683559425096 -2.1415629320513117
35.887171935333036 -120.53395314994275 11.986013315571796 -1.9411174951079748
35.88840115957749 -120.53495020882556 12.705585022997449 -1.7131318324955895
35.88613149918514 -120.53516884192933 13.032775148565516 -1.4728935482226249
35.88548589910154 -120.5314335929459 13.451052732086673 -1.2338114817734112
35.887008508490624 -120.5351088624297 14.242967702772537 -1.0063897924470302
35.88692612793445 -120.53140344047233 14.342236843153989 -0.7978909206268381
35.88790603356831 -120.53079125444013 15.011899680249222 -0.6125304948070404
35.88443435257235 -120.53168097075138 15.357320960566451 -0.45199114268162643
35.88962970563951 -120.53352813258216 4.359539679368021 -0.5466878031522867
35.89029402713845 -120.53392575720865 5.035925703604383 -0.7278766309127362
35.89209019496262 -120.5317075611238 5.450242466190986 -0.9370183813963994
35.890539133859484 -120.5333729549327 6.103012861388649 -1.172299572698813
35.891526286049555 -120.5355995544776 6.475845738485971 -1.429035309797127
35.89043249670779 -120.53570712819484 7.0519958870543515 -1.6990610430439321
35.88967593253902 -120.53364966729963 7.271857637187777 -1.9704838408646448
35.889674866820755 -120.53356081384464 7.88578662609756 -2.228045535781393
35.88907163975424 -120.53593079724804 8.698664436079882 -2.4542886438662537
35.88937434648436 -120.53448264603979 8.758852277598466 -2.6315383639526164
35.88957667710894 -120.5307048932648 9.430132636994312 -2.744441738994654
35.89288758785474 -120.53258664324147 10.134155048708026 -2.7825307693296657
35.89051869987577 -120.5307734140574 10.486358002959449 -2.742138074090582
35.8901988732195 -120.53431006837032 10.779692024111897 -2.627100255181857
35.89077891677408 -120.53100834125979 11.472016393884793 -2.4480297967449016
35.891547133686906 -120.53208000204683 12.11986976375337 -2.220380908536032
35.89128489197943 -120.53175376021075 12.369186329943451 -1.9618780809324654
35.89013572803265 -120.53184161930847 12.90886611727857 -1.6899790913396475
35.89319640490279 -120.53387291650107 13.43155051420592 -1.4199030735980673
35.89301878171704 -120.53106790509018 14.042988505980928 -1.1634784931938054
35.892630792897094 -120.53112670469447 14.333233039534862 -0.9287938954602798
35.89109131579953 -120.53528129492086 15.213041531365397 -0.7204579662156636
35.891872347100545 -120.53585568314473 15.710987701512474 -0.5402154333021723
35.89550564705011 -120.53479416495998 4.045239760789601 -0.43863034426175557
35.89653118724463 -120.5319010119752 4.721095955312091 -0.6029604705688311
35.893931126052045 -120.53113799183696 4.775732727480513 -0.7969877314028069
35.89766525353739 -120.53182911288555 5.44869676523798 -1.0211452706955337
35.89401855000335 -120.53324923496734 5.8614187912256 -1.273588175061246
35.89763269903786 -120.53454667517214 6.589289596683251 -1.5493794768965612
35.89677678033218 -120.53572777710866 7.230596816559126 -1.8398114600441957
35.89390885591339 -120.53302499115094 7.692482633456716 -2.1321107909040093
35.895347321681186 -120.53118577645544 7.789223897380588 -2.4098078254149793
35.895258459284655 -120.53288221749015 8.402114547963498 -2.653986742282357
35.89367370172723 -120.53354653554271 9.159947159535765 -2.845439511171591
35.89770203776532 -120.53594978341091 9.608085040660502 -2.9674449451360134
35.89643191752074 -120.53068563091178 9.99904113104924 -3.008586254814648
35.89509113863678 -120.53616701377562 10.557224214052361 -2.9648624195004953
35.89624533426624 -120.53210103079981 10.934064753539804 -2.840464139771835
35.89443743696483 -120.53164044047028 11.42750573278336 -2.6469698393595755
35.89698871063766 -120.5357340987091 11.836379398097522 -2.4012134185865444
35.89350135699978 -120.53288639473026 12.29693080539693 -2.122457413372388
35.895407420742266 -120.53566675862088 12.76533813370743 -1.8296166230870148
35.89345837194584 -120.53587915947233 13.403118221745702 -1.5391157169753247
35.89435132708093 -120.53572754336234 13.954543010972877 -1.263654910050492
35.895126102561065 -120.5311413691854 14.366682854586218 -1.0118563365149837
35.896930290532154 -120.5328244021081 14.900213287053289 -0.7885716003241681
35.89751882867899 -120.53209997291994 15.36163345697045 -0.5955689591051085
35.89575887962347 -120.53395179491659 15.868924281623654 -0.4323517765369153
35.89850595234225 -120.53536001540817 3.935852501137092 -0.4533805431898256
35.89825681371808 -120.53214711518963 4.587312474975248 -0.6215350134607996
35.89991353974861 -120.53384254154209 5.11603277462413 -0.8201490026621361
35.900459766481276 -120.53284581169719 5.448515304220731 -1.0497020103405315
35.900083525084604 -120.53520635845183 6.030571020002364 -1.3083411333174595
35.89857305240751 -120.53344607611913 6.419411248931382 -1.5910396644985065
35.900830002989096 -120.53489265517999 7.094593787253297 -1.8888918321441188
35.900580369004395 -120.53240404846157 7.548940508572313 -2.1888003135251997
35.89784385417164 -120.53181669980124 8.01728648522201 -2.4738474565110558
35.90088789063902 -120.53595410257361 8.376042142882532 -2.724576607342907
35.90134825412401 -120.53400099153768 8.980420859133893 -2.9212103075203144
35.90221417838807 -120.53325101397944 9.678538864127304 -3.0465192192573336
35.89952266762388 -120.53074396442383 10.090408285498544 -3.088735115743851
35.90035463000612 -120.53439053596 10.26789796471286 -3.043735548403162
35.897865452411544 -120.532432845427 11.09148377301764 -2.915846686273666
35.90062488372519 -120.53138032049652 11.557193086938163 -2.7170102543593044
35.901844549203574 -120.53338874883283 12.180781753199705 -2.464576395664537
35.9009373686105 -120.53158404157459 12.506958447182644 -2.1783807286419243
35.90103993655559 -120.53341363882625 12.982090158276433 -1.877878376017509
35.898590978631645 -120.5325793971196 13.469715969281394 -1.5799382933605153
35.89790884566867 -120.53606874487859 14.124864699165387 -1.297578987302319
35.89798018683175 -120.53310046736603 14.259433625344458 -1.0396141722203707
35.89869242900831 -120.53488697038502 14.828824431010162 -0.8109788547576144
35.898468993058266 -120.5354350599052 15.507721138290643 -0.6134436822801638
35.89945314798542 -120.53566847132912 15.927710764620572 -0.44646109291968156
35.905702764946014 -120.53230680156929 4.129859520304125 -0.43631485193699115
35.90305154420877 -120.53158033838388 4.255760766319532 -0.601000199648757
35.90400056976872 -120.53162953002416 5.007318759540266 -0.7955183001235495
35.903119358381794 -120.53385977273891 5.2666295267925385 -1.0203124747462515
35.90609072964983 -120.53507313419496 5.919337490088974 -1.2735376881941103
35.9051181092545 -120.53480265544853 6.37400517475678 -1.550241819656568
35.904214796648525 -120.53598524367078 7.073499503492533 -1.8416827532380853
35.90613486248797 -120.53084287162226 7.300478313394816 -2.1350312246959144
35.90605455197917 -120.53597356611833 8.191824701028422 -2.4137415034598475
35.906738616257925 -120.53215153494496 8.703335595937219 -2.658807898843059
35.90441191174986 -120.53508491072505 8.977877472907762 -2.8509303398877517
35.90280477313636 -120.5321197281506 9.566249875509321 -2.9733086441788426
35.904949045433185 -120.53435161728797 9.846751900328202 -3.01447542024909
35.90489877345477 -120.53124336333201 10.340468228108785 -2.9704184611481708
35.903048484508076 -120.53363284021897 10.830875646252162 -2.8453597838705043
35.904646329586996 -120.53271110612637 11.505200215855346 -2.6509456104535705
35.9050081782282 -120.53299847580308 12.064953662889412 -2.4041009000955613
35.90252707290723 -120.53527993647107 12.61521940434904 -2.1241861731212857
35.906512443635165 -120.53124042406407 13.019641857408944 -1.830206162814041
35.90435387518493 -120.53145723409799 13.254302017462175 -1.5386569920912028
35.9040739759177 -120.5346153147535 14.010044250457385 -1.2622871100580235
35.90311541230952 -120.5307853639678 14.390564270259267 -1.009743932159317
35.90579309314208 -120.53065658497854 14.967945684523206 -0.7858850051117608
35.90613841740168 -120.53113377945802 15.634879007883658 -0.5924703216325724
35.906434604203675 -120.5314852872135 16.027154169808092 -0.42898600466306425
35.91008037822068 -120.5354029202447 4.544347052780347 -0.5434130185873034
35.90738622342034 -120.53306610651644 4.890484842804147 -0.7256619767572854
35.90933676325224 -120.53396537265665 5.468563625028265 -0.9361568572318137
35.90698504275821 -120.53442727025292 6.127133692965642 -1.1730814232485418
35.906855514423704 -120.5309743514385 6.446415424161525 -1.4317177247809734
35.90720285851275 -120.53289316943994 7.035920992909409 -1.7038297788885652
35.91123163161199 -120.53516162211993 7.6693776374391405 -1.977410722596159
35.90709767766058 -120.53569480604992 7.871382427336498 -2.2370490683039836
35.90786494051508 -120.53428325699679 8.26449494238662 -2.4651075196772414
35.91020103281915 -120.53151853069029 9.016550488221762 -2.6437279547278343
35.90989424577739 -120.53149092043326 9.744577697286788 -2.757400468592627
35.90949589713149 -120.53415797982531 10.000018267644581 -2.7955564249372467
35.90771260082556 -120.53277880150056 10.451787566457638 -2.754505611662456
35.908081922577445 -120.53507352219043 10.839193503456478 -2.638145677687779
35.90927166624946 -120.53177763560366 11.562644076267047 -2.4572224515982337
35.9103342982886 -120.53499236636404 11.778410302842557 -2.2273701669529364
35.91083944987453 -120.53291705289536 12.659379723473121 -1.966508167243679
35.907889739145396 -120.53405154397637 12.842381365779964 -1.692274454827789
35.908319687438755 -120.53066388279402 13.378542287784871 -1.4200329497332955
35.90755795415142 -120.53560351903037 13.8390353229479 -1.1617116141889818
35.909321536511044 -120.53289542149655 14.533822466183798 -0.9254531778217459
35.907945992007136 -120.53201034566443 15.070620212719588 -0.7158818533855162
35.907018611809825 -120.53379287583385 15.290913724368716 -0.5347290849029458
35.91515941438214 -120.53567155286359 4.304334287726073 -0.4539939153733639
35.91175003863129 -120.53120469876805 5.051598936493159 -0.617153448556705
35.91189401454584 -120.53307855913695 5.638343205020209 -0.8054476452463626
35.91161657071153 -120.53078053645147 5.891036046016178 -1.0171245762109093
35.915312770740314 -120.53425393905214 6.6165893970196175 -1.2478475959607906
35.914606704774464 -120.53166001881151 7.150734224436105 -1.4901769738461306
35.91303162620048 -120.53256300671919 7.454880610088183 -1.7333795324395327
35.9147037084542 -120.53531183020182 8.000755459214487 -1.9637829093379904
35.913529995286034 -120.53378307086292 8.684146379734415 -2.1658326086162254
35.91493017483249 -120.53316970825571 8.90620225615994 -2.3238529399325762
35.91381503959925 -120.53608527131205 9.708043756831975 -2.424278335111008
35.915479451682195 -120.53282516876261 9.858787252239708 -2.4578896429340995
35.91449647721124 -120.53177257833592 10.26548417094907 -2.421477204178149
35.91406554656204 -120.53444530176711 11.08916195194395 -2.318447870095575
35.91362917662337 -120.53327194559105 11.324658030885463 -2.1581898088627427
35.91537041808343 -120.5323166844263 11.874605602622745 -1.954388228399981
35.91291206821075 -120.53205339129514 12.468059403764398 -1.722779224964978
35.91189094829666 -120.53144047677328 12.858844518585077 -1.478920492252501
35.91337160704086 -120.53238069057807 13.330004456492556 -1.2364414620272406
35.91405057952637 -120.53337837914142 14.081792868878695 -1.006001895912054
35.91305038259096 -120.53476884164796 14.532471867180561 -0.794953537652849
35.91179239738201 -120.53535962863984 15.098370486461068 -0.6075436690942024
35.912921719150965 -120.53261559417574 15.321975737461537 -0.44544261665339974
35.91942206375685 -120.53203311589483 4.997298701504684 -0.4795719689094861
35.918874175878344 -120.53063843717209 5.335479814775988 -0.6401167829843049
35.917511687500095 -120.53226839309002 6.208098899100571 -0.8203690882452443
35.91996155267987 -120.53419679747154 6.608295291898308 -1.0164981112588058
35.91973499556097 -120.53347026723542 7.005332464919543 -1.2220721908322112
35.9162184836166 -120.5358284709669 7.434071404179047 -1.427935408811425
35.91903800271321 -120.53128880487908 8.174382962569679 -1.6225386356676794
35.91702488398331 -120.53428697484088 8.384140643124166 -1.7928440680620121
35.9163489927485 -120.53555419258645 8.819460886778948 -1.9257925838765
35.915857787522974 -120.53213760205061 9.335481258124764 -2.010136161726004
35.9177421532742 -120.53521527563964 10.2322841113494 -2.0382573535230666
35.919010912472864 -120.53390151157006 10.720688515662292 -2.007514281889116
35.9163783261458 -120.53295345230026 11.088676360155878 -1.9207294011925888
35.919164076086474 -120.53308302392458 11.56670339480067 -1.7856756396024074
35.919188786638024 -120.53414901758211 11.800386728699507 -1.613712342962097
35.919936787529885 -120.53555249131846 12.679470633019347 -1.4179566644518078
35.91669881060088 -120.53611274196068 13.067176668248727 -1.2114524750278224
35.91674642811492 -120.53272397898252 13.376557996662335 -1.005712470096489
35.91675746719418 -120.5338856491579 13.75022336004391 -0.809827406986938
35.92022728975597 -120.53484715291391 14.47905495094998 -0.630149317866791
35.91728694163453 -120.5334054845046 15.063172959103866 -0.4704269610331656
35.92093403141917 -120.53092881277007 5.624164400983977 -0.4540356265239529
35.92344161180406 -120.53563992074827 5.930591391964837 -0.5997807955819056
35.92050076491128 -120.53597552307546 6.2577270475562585 -0.7581361723765342
35.92300973517501 -120.53556895682925 6.976483379755409 -0.9237968132142405
35.9230326023898 -120.53495100994547 7.493137812488319 -1.0893229391083399
35.92404818808417 -120.53150917064619 7.776540505799026 -1.2454352392422803
35.92084927356127 -120.53380922321978 8.357522369574722 -1.3817518392937729
35.92137538092769 -120.53209866671119 8.877960640447426 -1.4879481524404905
35.92257239788122 -120.53614639296916 9.663989643560138 -1.5551807430910551
35.92225417369643 -120.53479244593215 9.940111260035652 -1.5774855593283466
35.92418534159962 -120.53395964002141 10.37316062891554 -1.5528041670628914
35.92410853212211 -120.53307657071424 11.046326517785564 -1.483354643909653
35.92349680026238 -120.53237455110055 11.612109824669824 -1.3752392420086783
35.9213132837978 -120.53269638394161 12.02841265555146 -1.237401714398295
35.9232242796609 -120.53114643094881 12.553910413776997 -1.0802208842090009
35.92314156873601 -120.53147905643614 12.98932410442175 -0.9140874270771677
35.920583558155094 -120.53118593734789 13.576944005836351 -0.7482516700574388
35.92380654428817 -120.53544678391965 14.216156575733773 -0.5900981766598388
35.92380187553277 -120.53584478502356 14.636808496796238 -0.44486271028880536
35.926970940643194 -120.53613531672471 6.7050685160008365 -0.49291982870930695
35.929022618924286 -120.53442433661192 7.2240430316495585 -0.6190180988372285
35.92813427559956 -120.53389294786744 7.289643385024301 -0.7448072030842169
35.927874424192304 -120.5324055464078 7.869961990641233 -0.8632124875226707
35.92646744610136 -120.53075415361602 8.719637816424843 -0.9663935650808396
35.92627912799684 -120.5306974362331 8.933283666766906 -1.0466131239836245
35.927274789535204 -120.53075935588305 9.305812742293664 -1.097283807551061
35.92677968400576 -120.53341504641381 10.135939022329344 -1.1139837754569655
35.92685731786323 -120.531242533661 10.683160079303214 -1.095196100586489
35.929039597117566 -120.53099437754453 10.818932743503005 -1.0425742683522516
35.92922661830629 -120.53437491673931 11.735339966142863 -0.9606590621841062
35.92629320750621 -120.53439030551992 12.149502844660429 -0.8561255018862077
35.92892298003734 -120.53313860669296 12.698528498510578 -0.7367601931538261
35.92615194103617 -120.53274372218338 12.795568679561246 -0.6104144953019263
35.92507224377783 -120.53504797727537 13.457014161933984 -0.4841415798770198
35.93003691093042 -120.53120321681857 7.28563505164271 -0.4174215387402231
35.93208957381506 -120.53544942334209 8.178041519410623 -0.5015334695519625
35.93003665871953 -120.53231280041238 8.544218984496586 -0.5747406626245177
35.93201864127208 -120.5308139396968 8.816656440267515 -0.6315656413183155
35.92941342179525 -120.53126391113256 9.27052879833206 -0.6673734483580942
35.932548042053405 -120.53359496188676 10.080705754408807 -0.6790682206656921
35.9323424938571 -120.53076549127468 10.284559271110945 -0.66559603627005
35.93332468030582 -120.53379954499735 11.119803031172928 -0.628124082284429
35.93121657640315 -120.53229866337037 11.262648171545742 -0.5698475245575197
35.93036988995886 -120.5322069687084 12.167179154817358 -0.49547571399293316
35.93287528506635 -120.53208322255068 12.6449648267543 -0.4105296764194723
35.87042077448006 -120.53004443419243 9.33307169178701 -0.4083430495350791
35.87012950642696 -120.52830701440634 10.241097716384568 -0.41918519309412655
35.86896068764982 -120.529823677848 10.61770102416427 -0.40778147377340446
35.87458258267457 -120.52550472183599 7.2028185266398985 -0.4393868455081384
35.87129854452854 -120.52855920988219 7.580255068447431 -0.5578747726221728
35.875117522287454 -120.5261189274079 8.121276839406978 -0.6714621084436228
35.874406605567195 -120.52579413659726 8.292805120335977 -0.7720075881854365
35.871882242890074 -120.52718578257512 8.78232597217063 -0.8512208495725636
35.872088844598466 -120.52575932976117 9.45864545865275 -0.9018745866946015
35.87275324495849 -120.53027432776939 9.888701748979242 -0.9190303974202325
35.874179153821736 -120.53039031840233 10.717188683553674 -0.900955771568775
35.87284499578437 -120.52984689644799 10.84083529363112 -0.8494610358259088
35.87176960746847 -120.52820638970442 11.290161558503732 -0.7695510386541219
35.872970425672605 -120.52945987589838 12.132015186824878 -0.6684996611042493
35.873500663680176 -120.52815064107682 12.503904992201797 -0.5546201627536445
35.872866531015376 -120.52606960295883 13.02799485275522 -0.43605405198949576
35.875523982786575 -120.52730244162328 6.0816022421722336 -0.46446914187727206
35.879318997295776 -120.52577161142904 6.6942280363128885 -0.6187140020230877
35.876964993705265 -120.52829890502755 6.973417479787968 -0.7835908398164112
35.87736760710428 -120.52603079460366 7.497454369863815 -0.9516107753126279
35.87933874100713 -120.52592937126062 8.189412659691154 -1.1128809227202285
35.875421272091145 -120.5269168872183 8.492962638951855 -1.2558493704669869
35.8771232213518 -120.53039150440168 9.034249034273081 -1.368646876372166
35.87663452463192 -120.52648028887569 9.334548517077337 -1.4408549477535215
35.876833486076535 -120.52899127535541 9.888756719344126 -1.4653209045686935
35.8784635280869 -120.52626459918058 10.54166137097448 -1.4395282453715728
35.87581397628572 -120.52716625992844 10.762225774891384 -1.3661025720319104
35.87538242845164 -120.52775380923997 11.421295461030226 -1.2522890501839992
35.87657132467864 -120.52971308858555 11.83423230110639 -1.1085697900906828
35.87766179667325 -120.52659339589334 12.279164880166247 -0.9468435778325097
35.876773234356065 -120.52670613922878 12.975563240025908 -0.7786597462754751
35.87906469010154 -120.52852581024621 13.613505860065167 -0.6138836604693532
35.877870665095976 -120.52869949566978 13.971078672945064 -0.4599612503745317
35.88154974476131 -120.5263936502195 5.412276770630438 -0.529157737692895
35.88072002693719 -120.52939607167949 6.213608974413315 -0.7095928259885176
35.884206160381744 -120.52604587097522 6.726306741648019 -0.9104208236827634
35.880940976170784 -120.52510317602831 6.975534327488194 -1.1254643107654219
35.88088811620826 -120.52842502130963 7.629230846965907 -1.3450998261758107
35.88223369485757 -120.52773891021305 7.856240886360262 -1.5564283395233505
35.8832288626439 -120.52706874694677 8.33971972878142 -1.7442169047492626
35.88393385991135 -120.52802088701328 9.178555957080388 -1.8926749029492025
35.88212273264931 -120.52815667307841 9.478344458986198 -1.9878488930767721
35.88073230685462 -120.52977155390455 9.807952489322158 -2.020115791615365
35.8816221223782 -120.52729339264823 10.679581119602265 -1.9860814094033377
35.88380400866333 -120.52562430134557 10.880899900486122 -1.889284353172573
35.88384233326741 -120.52898648873084 11.637751907976197 -1.7394693273152964
35.88375857225131 -120.53006827533112 11.854858195888673 -1.5506720150487228
35.88107889043407 -120.52592951579892 12.688469341835336 -1.3387191909008636
35.879956401865684 -120.52808305215201 13.164360381831647 -1.1188371008137248
35.88225077078737 -120.52981017762667 13.29428400179461 -0.9038854585377212
35.88107238850944 -120.5262368264981 13.958654012356385 -0.7034289423708634
35.88196756507162 -120.52837595561043 14.638718272269141 -0.5235791509375395
35.88865638348623 -120.52553837391211 4.7903091259083554 -0.5203991568033276
35.88845366975072 -120.52529524044792 5.469192354480212 -0.7107171132729133
35.88520371857686 -120.52822611268228 6.113349134806951 -0.9297920304314998
35.88500742780848 -120.53002622616013 6.591702412920997 -1.1740891162550728
35.88569222674679 -120.52866419895663 7.183847053174714 -1.4362976280583912
35.88671906846051 -120.5270807287625 7.6074006703451875 -1.7048032019496075
35.88718429795867 -120.53012631126683 7.882030161015942 -1.9638298085728239
35.8842379603097 -120.5275329575632 8.581338219980525 -2.1945581375384773
35.88720140803226 -120.5285206970834 8.808360361598229 -2.377326814638169
35.88623536851889 -120.52985944983187 9.472890372577353 -2.4946601954919525
35.887896620987824 -120.52763367950647 10.016828313736944 -2.534458725583359
35.887168854150076 -120.52850589238007 10.541608674105282 -2.4924461609646555
35.887204379888175 -120.52727141974292 11.208851895773353 -2.3730800730230523
35.88701093260309 -120.53022491864124 11.500108748793801 -2.1886118929704144
35.888118198414496 -120.52572776167118 12.192164191462966 -1.9566184811971583
35.886011925972596 -120.52765252039953 12.523672903600376 -1.6968035848858984
35.887327247734525 -120.52529424062777 12.753409637252268 -1.4279747912370893
35.887424181605944 -120.5259868478956 13.44703375292371 -1.1658559548058758
35.88708100864421 -120.53047799867592 13.973610681812852 -0.9219858685199199
35.88472593638811 -120.53017551572447 14.264858759791874 -0.703592103490199
35.88585752182278 -120.52745965438811 14.977082953953127 -0.5141304981426297
35.89271571771058 -120.52824189235581 4.659056013034373 -0.45328596575675645
35.889239942371304 -120.52718579942821 5.151580835600865 -0.6369528783149618
35.89300688125763 -120.52743248223474 5.575935163880183 -0.8543372178153128
35.89283828893909 -120.52614317653544 6.176003884095441 -1.1049411743874666
35.89077013713777 -120.52781152924922 6.46189980510766 -1.3849301836086767
35.8892177979055 -120.5288785425908 7.0648906689707935 -1.6860992698012032
35.88989757178532 -120.5302792534884 7.345045853243102 -1.9952021827796556
35.89106275191544 -120.52536054146698 7.795322599475718 -2.2940541183716476
35.89259618201699 -120.52966217367434 8.28843158008184 -2.5607895245306462
35.88910667682201 -120.52672854857454 9.118443338622669 -2.772424798132201
35.89123323937773 -120.52650824903037 9.745881524374882 -2.9084387608827917
35.89023821662079 -120.52577482954268 9.976510660774 -2.95458056421251
35.89092958702322 -120.52783403022947 10.482212112082363 -2.905806879183157
35.89114064860125 -120.53011336047963 11.184560874463013 -2.7673774502356316
35.8930117688115 -120.52509783633548 11.301798109959805 -2.5537236492066167
35.890149972402135 -120.52863906732546 11.919184096878034 -2.285485634469773
35.890820004411495 -120.52695626509279 12.749819572496818 -1.9856949246572877
35.89037802115036 -120.52558936470581 12.810275194435276 -1.6762002133739513
35.89211285592209 -120.52660214642655 13.666409047439235 -1.3751216560208865
35.89216739671126 -120.52763338762324 13.86969428032027 -1.09561389870177
35.89094928192249 -120.52830667736343 14.583589168981867 -0.8457823440480585
35.889397059421626 -120.52514688195957 14.832024930898593 -0.6293679607415513
35.89167565329791 -120.52876514778123 15.569003003703148 -0.44678910639624847
35.895829497657616 -120.52533216351253 4.7019768432019875 -0.512647232878927
35.89557937808758 -120.52989067262898 5.184578561928214 -0.7111415145110924
35.895301582132625 -120.53050499784047 5.5929768432809785 -0.9462791712940174
35.8959019326385 -120.52796307680183 6.171935882449628 -1.2176660312680403
35.89705520961747 -120.52584312258637 6.296725592124125 -1.5212937975975338
35.89747070995325 -120.52906390338056 7.185571950292027 -1.8483820058010318
35.89611898908605 -120.52902045391043 7.3519970435585105 -2.18460373637786
35.89711163992243 -120.52993473943465 8.071392053994206 -2.5101546094437728
35.89748153781293 -120.52566624058781 8.618404980123573 -2.8011001805317934
35.893771903272636 -120.5296239849491 8.928788577964783 -3.0321843673676714
35.89544288293487 -120.52566991534378 9.57463099894068 -3.1807925458236483
35.89752452822674 -120.52835650601845 10.19739551985608 -3.2311910999333913
35.896395892957784 -120.52980571522025 10.556763154730287 -3.1778088758335796
35.897600418361 -120.52581796919252 11.150847186398295 -3.0264627933117976
35.89718830061984 -120.52799691631495 11.578740772370345 -2.793090960046911
35.893681533701084 -120.53022004206598 12.014778402742422 -2.50044186612331
35.89505655946504 -120.5263348351323 12.397261528007348 -2.1738241896692396
35.89562670421059 -120.53061180026667 13.03066109355803 -1.837151293524262
35.89365605397249 -120.52930488040866 13.734241329962463 -1.5101525629562822
35.89507937436396 -120.53020581087269 13.77438897576112 -1.2070499885107364
35.89652323503016 -120.52786400976714 14.285176232263073 -0.9365108025331127
35.894549218777186 -120.52586474714535 15.165342089164438 -0.7024374943386578
35.89684674605274 -120.52540702748007 15.580304658378864 -0.5051348915837888
35.90168961342944 -120.52733781001093 4.7102331454224755 -0.5321225044883908
35.90153856904196 -120.52608349223853 5.117853147689326 -0.7359084469350942
35.8977996915203 -120.52655361618874 5.688996921964928 -0.9774249497590274
35.89801328814148 -120.52974790675657 6.163146269040123 -1.2563219022072278
35.901303427592794 -120.5267406410579 6.650746787110488 -1.5685324325495529
35.90062607828286 -120.52542272944926 6.899649115293466 -1.9050678469773132
35.90063322928616 -120.5284065513916 7.387752345997192 -2.251203861228896
35.90000559879148 -120.52994541491836 8.100360175890179 -2.58653610380184
35.89953152870372 -120.52912422941262 8.609828121591907 -2.8863603821580415
35.8992324084615 -120.52770117220265 8.82885411888159 -3.124573070497031
35.90126859027418 -120.52841982081164 9.519706351647864 -3.2777781716744063
35.898815281100646 -120.52647219046273 10.126139665329625 -3.329689663762532
35.89872820667276 -120.5252234277365 10.550944396520894 -3.274542737678325
35.89815920158417 -120.52903959465274 11.069297552604356 -3.1183679583474517
35.898123807752306 -120.52823146568652 11.674829347748098 -2.8776723061375535
35.89935026752216 -120.52780400635336 11.858087098454101 -2.5759961321645384
35.901588926493595 -120.52622720970355 12.537901287859386 -2.239499364595336
35.90014168366458 -120.52793961963845 13.15142625340705 -1.892862789914696
35.90131302036384 -120.5297190544323 13.718276406002644 -1.5564091990407738
35.89964298851618 -120.52857351244911 14.020844551145261 -1.2447491271324946
35.900043682556905 -120.52567165639492 14.722715118861737 -0.9667487727640484
35.90185628466827 -120.5286750844633 15.177725948737237 -0.7263607071179629
35.90148841073359 -120.52991963615267 15.25680786397262 -0.5238386497533088
35.9044928669657 -120.52989199459245 4.356598375726543 -0.5100757409305182
35.90386192124434 -120.52898302339385 4.9630874917124785 -0.7090691020105969
35.903215750761554 -120.52879912140966 5.638549235720674 -0.9448903989052371
35.90271847346818 -120.52795856253842 6.100108341690456 -1.2171548929738432
35.90383168909024 -120.52983250712927 6.550406879962788 -1.5218454424940622
35.9066362967923 -120.5257749564831 7.111333099131762 -1.8501470600435301
35.90345877887657 -120.5260766380222 7.6236918441072135 -2.1876671430584995
35.90520536833725 -120.52748891866632 8.055635083400103 -2.514503854888115
35.90435635471731 -120.5279512138886 8.61417172830778 -2.806600627853103
35.9064321767214 -120.53055085397992 9.013650803301566 -3.0385707546689025
35.904608667456 -120.52656797116414 9.448710921751319 -3.1876838143497714
35.9042337719293 -120.52759266348058 10.145366105892506 -3.23813012969649
35.90265722263777 -120.52594158957035 10.560724997094557 -3.184320767247535
35.9055958472113 -120.52915932867496 11.116143721438789 -3.0321185523495333
35.90369734525098 -120.53010018297194 11.735594243378568 -2.7975611361135018
35.90476101557569 -120.52741182136047 12.208280021436021 -2.503528317284278
35.903597553051235 -120.53053839083843 12.285739524554584 -2.1754657030901656
35.90438698709666 -120.52867297577188 12.868753579341533 -1.837406675797954
35.90454450656212 -120.52637737879154 13.59993799607938 -1.5091697433878168
35.9022810555871 -120.52567518031759 14.010806979156682 -1.2050306867535532
35.905120328849115 -120.53060338388325 14.690795726699513 -0.9336782502428578
35.90385894835919 -120.52783610232973 14.992216332941044 -0.6990114274088496
35.902533006957235 -120.53023505660029 15.377121362911712 -0.5013150229427301
35.91115015314271 -120.52821251976066 4.724494622522684 -0.44892287481424403
35.90679740915309 -120.52516296148042 4.814445990471595 -0.6336946166914205
35.9072452120151 -120.52575923566492 5.283964113976923 -0.8525571081635531
35.910152065363555 -120.5270166566571 5.7576692415431765 -1.1050278634891495
35.906927440588866 -120.5305969898025 6.7038421148483325 -1.3872504245078838
35.9090580717075 -120.52634616599485 7.009913423613844 -1.6909464148203648
35.9110561321141 -120.52950223148875 7.432964141495831 -2.002734464906243
35.90911101205214 -120.53022508308709 8.12071121906249 -2.304232442030771
35.90851568230517 -120.5283726796277 8.74091784300719 -2.5733299203010898
35.90794461582947 -120.52541791162065 8.785857339525789 -2.786783002643324
35.9069715419575 -120.52575148614334 9.403512135602249 -2.9238405628493673
35.90815298892685 -120.5259407945075 10.101848311921184 -2.9701006408428317
35.907553881740355 -120.52996624430541 10.739174744028544 -2.92048367788634
35.910392114812595 -120.5302064718695 10.763312707642791 -2.780338656508369
35.90683855816942 -120.52837578155214 11.61775953428466 -2.564292431438793
35.907207244993124 -120.52521226594192 11.847023163513583 -2.293244635490694
35.90712722501114 -120.52547889712383 12.657056647347977 -1.9904993907595339
35.907886547078505 -120.5298734705209 13.123201506630526 -1.6781467575599107
35.91078914461189 -120.52550917076822 13.649174646219894 -1.374488883799192
35.907349089902716 -120.52519463498209 13.945989651596687 -1.0927933299505619
35.91023106700712 -120.52537441482446 14.595769303608078 -0.8412143925156671
35.90703689233034 -120.5273779729123 15.2226450791146 -0.6234915396849606
35.906777996571414 -120.52896840100723 15.524581477783455 -0.4400075820013445
35.914292737211206 -120.52972166329943 5.173493942726821 -0.5175867372588311
35.913250475340725 -120.52509138356004 5.701695542753328 -0.710369628845623
35.913127402485564 -120.52942536234353 5.80922110525715 -0.9324907133302827
35.91307550715213 -120.52703323907599 6.661839862420219 -1.1803726682636644
35.912455923758166 -120.52752879239885 6.996793690585332 -1.4465850751509066
35.91356673058052 -120.5291305633359 7.639907240118528 -1.71930320486013
35.91513487680622 -120.53006745185087 8.124682610037713 -1.982450945283825
35.91437277113392 -120.52596600425336 8.591399877962559 -2.2168420435928935
35.911273044594566 -120.5304133216211 9.225043609756568 -2.402428818565985
35.913014500100445 -120.53023814371782 9.481864894495228 -2.5213961957829834
35.91413140825264 -120.52924274354017 9.96481094003365 -2.5614214897259098
35.91181142700458 -120.52592476207992 10.612446260609637 -2.518173013854804
35.91405958223814 -120.52611284243136 10.880015621069772 -2.3962359047172597
35.91132415663348 -120.52959424425318 11.521808774156444 -2.2081453580870973
35.91541965038198 -120.52892469026952 12.126338499770815 -1.9718584805893895
35.91566022891053 -120.52641725282352 12.701676595983262 -1.707483018154853
35.91509813203935 -120.52798073055092 13.232904190343323 -1.4341897468566693
35.915382578407176 -120.52590273673037 13.568091847867409 -1.1679825777585924
35.91553722196043 -120.52716968395028 14.01906213912483 -0.920580942901591
35.91503097969647 -120.52531219218191 14.414013357636815 -0.6992988144322658
35.91482536140858 -120.52545399613231 15.004617419727607 -0.5076024346995389
35.91929626975981 -120.52735058094648 5.651214181574752 -0.5325928632300919
35.91885730212017 -120.52574955997682 6.018067145314118 -0.7174675903093466
35.91982175360438 -120.52657090294502 6.7431705723497855 -0.9234266543179247
35.91889117766337 -120.52670074275429 7.040586266532511 -1.1441184662201993
35.91670719680595 -120.52555912169018 7.316871277527205 -1.3696288510321726
35.916602644184955 -120.52915487224479 8.033111901008263 -1.5866555709861
35.9202047662261 -120.52657955094372 8.321707596931848 -1.7794815044815142
35.91931625741479 -120.52554822396252 9.039298704859801 -1.9318124429675543
35.918102826554886 -120.53034966859606 9.440885842700705 -2.029255553338063
35.91913544308022 -120.5275038660033 9.902687018268901 -2.061898933401417
35.91929864710497 -120.52587622437899 10.51693516382794 -2.0262737364649515
35.91681388152231 -120.5279653607227 11.194057548129896 -1.9260773648731337
35.91879672757151 -120.52571982565755 11.607313823625727 -1.7714144861507612
35.92000148965302 -120.52857390446499 12.134574340684452 -1.5768087940986675
35.916360289911296 -120.52932720821947 12.69717639278905 -1.358612771361277
35.91821697270978 -120.53055625160566 12.886167846335136 -1.1325340786845568
35.91576831879748 -120.52994628292164 13.551802397606172 -0.9118136446891033
35.91612243760949 -120.52928785837445 14.079716653688664 -0.7062730004337766
35.917817974630346 -120.52667787077888 14.642467335618184 -0.5221592748440692
35.924665939366534 -120.53048318302241 6.1716472250568355 -0.4802128617543067
35.92462399175539 -120.52591658566563 6.35939789292074 -0.6412825538619616
35.923882657881165 -120.53012739671207 7.230392697140185 -0.8135623043250397
35.92193482498112 -120.52986111983527 7.573207629032934 -0.9891905916052282
35.92352829259074 -120.52914178518604 8.192912173290393 -1.1577730384842093
35.921291431670745 -120.52754843165297 8.586458796603205 -1.3071675530160154
35.924132356991755 -120.52618332302376 8.878457695464823 -1.4248994174293588
35.922629707194 -120.52939616827896 9.52079890782374 -1.500026146565054
35.923093163213004 -120.52823298341355 9.991401065814129 -1.525050884003094
35.922089357348895 -120.52557486358181 10.707973795167065 -1.4973646677285277
35.92364017459817 -120.5273954591228 10.840415193262988 -1.4197745623238
35.92465015804956 -120.52718466391202 11.309453306142236 -1.299945677595899
35.92277417123782 -120.52768320291449 12.24630105673192 -1.1489368236893274
35.92384016249464 -120.52652851038016 12.325241124099223 -0.9792775675841776
35.92193126227218 -120.52580490000028 12.758328693878868 -0.8031066303534729
35.923787329664535 -120.52594948040574 13.723106599225735 -0.6307694420160989
35.922805585831114 -120.52710668796043 13.883361687646303 -0.4700499303065141
35.92578666639041 -120.5261133816818 6.836736442248678 -0.48316278135883967
35.92629691030118 -120.52557842939531 7.59892401244273 -0.610960749309097
35.92780670111296 -120.52802397638634 7.934255827027473 -0.7334135029184203
35.92822433942034 -120.52890096688104 8.57231182967962 -0.8417017651405593
35.92626523113541 -120.52559808649326 9.249448422535465 -0.926849694972418
35.925342149457784 -120.52759058797619 9.679659868446128 -0.9810420392590329
35.9266155135143 -120.52748452536426 9.889496506069516 -0.9989547702671808
35.92626319138158 -120.52819671833625 10.26280396868445 -0.9787481046529363
35.92613457273785 -120.52686104847326 11.061905360679551 -0.9224273103943955
35.926256071070064 -120.52818594397513 11.658181409107046 -0.8354580611095856
35.927353527594036 -120.52850140283302 11.853684577007803 -0.725755528425414
35.92797554237056 -120.5287390393196 12.41918990725793 -0.6023455330291972
35.92829656643435 -120.52718640140321 12.956752107728628 -0.47404926192715796
35.93165295719757 -120.52869859932198 8.606329999001638 -0.41559818571702994
35.93294205235225 -120.52789311162502 9.085073973223334 -0.47243258797145493
35.92946672369633 -120.52607178088563 9.335301867059185 -0.5085127430873922
35.92979866398566 -120.52650764556456 10.195167411532053 -0.5203063461553471
35.931880641076155 -120.52631104658491 10.2725433162957 -0.506603745961085
35.93122509797055 -120.5268972925025 10.932837330402341 -0.4687481397661175
35.9306978011211 -120.53049436992613 11.294530094062145 -0.4103870917512765
35.871505553313305 -120.52214725623409 7.824994169526493 -0.4888850159326497
35.87258408464546 -120.52022225782638 8.548174026227633 -0.5892519531561509
35.872606074568395 -120.51976643639593 9.128747401410012 -0.6694714585227429
35.87469189272301 -120.52150023217801 9.59885475591369 -0.7212800161724646
35.871905370211245 -120.52238581663899 9.993620679474468 -0.7389282636401476
35.87275766477212 -120.5237967905295 10.41913581380179 -0.7203795485199829
35.87119704015194 -120.52232663967807 10.983595099172108 -0.6677568654399234
35.871268550563755 -120.52182793920741 11.645060121700444 -0.5868816683453737
35.872780520362035 -120.52298122726438 11.852121782058179 -0.4860651153994105
35.876010713584584 -120.52130875022932 6.305850816458522 -0.46837125659394757
35.87683812385425 -120.52033567463604 6.999951182358902 -0.6337725221595877
35.87732232122113 -120.52203677039141 7.693845886734625 -0.8064668692193983
35.87808506020857 -120.52053094308755 7.967427601475093 -0.9757941288785683
35.87656266562605 -120.52209443816406 8.485597673801957 -1.1286192285411094
35.87950192610765 -120.52209657733606 9.18372347967206 -1.2508993445372367
35.87683867850477 -120.52025084895861 9.262109313660604 -1.329947946545866
35.878613861349244 -120.52197335499176 9.777541718283228 -1.3568877176048564
35.87613242670887 -120.52452297320264 10.411753755371107 -1.3285630942484368
35.87684463646324 -120.52296298377722 11.120241016896685 -1.248257668348558
35.87742500427913 -120.52172745034791 11.41100435387437 -1.1249546965506378
35.87800930379922 -120.52469396858392 12.176067438172755 -0.9714090131113491
35.87523007427827 -120.52237000433706 12.668171452684444 -0.801688772618648
35.876014985215285 -120.52264135896515 12.996073494627995 -0.6289158990287175
35.878699703372305 -120.52088790996346 13.507106303020448 -0.4637098492530742
35.88215459739072 -120.52363993777264 6.088728563632029 -0.5787680065467634
35.882797982967226 -120.52330816619087 6.643675398139839 -0.7843505140883565
35.88034320393005 -120.52162934887205 6.9531562955454564 -1.0103051358293533
35.882676965408606 -120.52487774817475 7.66947378405329 -1.2466855724888963
35.88048185641515 -120.52159593705768 7.80956492165169 -1.4790380468478834
35.88136414077147 -120.52071341019688 8.522468553762229 -1.6892948030738983
35.8838295684815 -120.52262110596867 8.91037032030847 -1.8579217305331839
35.88044134801693 -120.5244906752932 9.456338003779793 -1.9671216398586724
35.880042987617614 -120.52447854519484 10.072355827535116 -2.0043692868197267
35.882320208941266 -120.52194231351609 10.292725752997768 -1.9651981814162047
35.88284482477742 -120.52369371599758 11.02874945361263 -1.8542516303218768
35.88052091860737 -120.51995911734299 11.584713816322678 -1.6841999765631843
35.88023254303651 -120.51989845471002 12.176194605702788 -1.4729318218295768
35.884171023572186 -120.52432354645649 12.735817364229595 -1.2400120876746272
35.88406852315682 -120.5202521069646 12.821477941973875 -1.0034860254653168
35.883582970869426 -120.51961973076914 13.711893311726932 -0.7777477753928659
35.880417356519374 -120.52110699597478 14.21261906326048 -0.5726654051683229
35.887796227096565 -120.52044247396555 5.129762385571693 -0.40224745946947815
35.88474033824776 -120.52431292319989 5.661518227449783 -0.5922511324573438
35.88470907630882 -120.52177551225688 5.949949097869124 -0.8173314795466908
35.884334082202066 -120.52185775126094 6.309194083907441 -1.0753393178974129
35.88737813249396 -120.52298068376403 6.8624402384989205 -1.3596035635749364
35.88580296617329 -120.52285210203331 7.715362029834034 -1.6578562429502814
35.88634107389114 -120.5245719425864 7.933672088818169 -1.9519367583335478
35.88719609677313 -120.52126253131348 8.730565730704546 -2.2188383100169538
35.88820621139422 -120.52056361736493 8.98046863263133 -2.4334322017630545
35.88840196312394 -120.52504464484697 9.553041009452713 -2.572649883858233
35.88773813603768 -120.51994904781458 9.787321632093823 -2.620173327434611
35.885912827499624 -120.52339325607278 10.711685477535955 -2.5701681604476923
35.88581283019965 -120.52177078396147 10.848335004177292 -2.42869807862147
35.88633325066109 -120.52218753290664 11.525669892180797 -2.212267966494679
35.88698804465192 -120.52313110385639 11.955521847081883 -1.9440617515337661
35.88600365210831 -120.52166581304384 12.344464655864376 -1.6492436116934392
35.8846012028367 -120.51960826356297 13.015426184050629 -1.3507866170745315
35.886730910800075 -120.52103308277883 13.444902635840737 -1.0667706143703304
35.88516655139254 -120.5198994174429 14.144646285359494 -0.8093605227179792
35.88529557696623 -120.52440142275171 14.455585429715885 -0.5851227052299379
35.891613831640726 -120.52222814531423 5.19872583356357 -0.5252781601236629
35.890665799056485 -120.52158357839757 5.425856029139977 -0.7467702526170543
35.8898905193746 -120.5230358201027 5.970090470957577 -1.0094978390612805
35.889949266796364 -120.52104105496676 6.74173723365532 -1.311266741061826
35.88996087234038 -120.52266403098137 7.140582300986897 -1.6445716291760186
35.88992519408114 -120.52046799233072 7.32838061012119 -1.9952340908181145
35.88979205075768 -120.52152552028647 8.139921387026826 -2.3419435689210983
35.890901942689936 -120.5230392117981 8.369388735443726 -2.657411300432339
35.8931582038018 -120.52450725903422 9.095860132632325 -2.911589886988627
35.89056746681183 -120.51952093454989 9.56659873664502 -3.0767303793628384
35.89320087964729 -120.52085757118147 10.173096093272639 -3.1331260629431847
35.889473198128 -120.52229909443405 10.494755194518877 -3.073717866190236
35.8893372934568 -120.52080007204185 11.112038026218325 -2.9058451621631316
35.890086400496884 -120.5229665279482 11.55774878367516 -2.64944181815721
35.89315156545024 -120.52170455183622 12.23315906353049 -2.3323948848820657
35.89260098897148 -120.52505414654475 12.701470033262787 -1.9847910698580549
35.892552748622634 -120.52489576755923 13.143572210026269 -1.633873870602942
35.89273394022011 -120.52082972422151 13.334907146299606 -1.3008522271113134
35.89150319287027 -120.52011791401877 14.112076276604723 -0.9997773819377079
35.8931696124465 -120.52184906935034 14.713081623054084 -0.7380271295681523
