> GMT_LATLONDEPTH
> out/cube/20240614A/PatchSynth/Synth_FF
35.9223377643556 -120.45680230390465 11.780109773661534 0.6360854900884232
35.92378605069408 -120.4533563418596 12.411049896567713 0.48931814935790047
35.923316909064546 -120.45640889104325 12.838404059000034 0.3900191683824517
35.92311632738945 -120.45621293179498 13.452752026579201 0.2599936246903896
35.92591000972231 -120.45720129987997 6.427839831988637 0.015750213328047293
35.92873949484635 -120.45416490076369 7.003065987472493 0.08210086169434633
35.928950342712746 -120.45791592973553 7.461937026446614 0.26003970306056745
35.925008887608506 -120.45821940753154 7.755469149464449 0.5258428144440891
35.92658634345024 -120.45769696683254 8.54358904246405 0.694467795779297
35.926949353144735 -120.45678550532065 9.09771471075091 0.8496028824657824
35.9248676365201 -120.45824476218918 9.303201137444885 0.8889471300489895
35.92564238154537 -120.4548917210391 9.777418922565424 0.9166918940222636
35.929187713589634 -120.45467214020888 10.271626427211515 0.8215874160438875
35.927644481452354 -120.4579911528624 11.246320538087229 0.696557471929509
35.926137767451856 -120.45640854931789 11.410338860033685 0.6291318717992403
35.92562052998077 -120.45374615625063 11.819035054639151 0.556621258729813
35.928122813268544 -120.45708150789304 12.267687527531718 0.4329078994876094
35.92628535333922 -120.45638868455006 12.795373192172782 0.34246275669670045
35.92634799606618 -120.45492586160374 13.399888266017726 0.19805045176692757
35.933221002536385 -120.45494259576384 6.4114334606166565 0.006604681795691111
35.929794811318544 -120.45560093980546 6.878260665547252 0.1468129729311849
35.930076602783934 -120.45344963384913 7.563215402439571 0.2877359740137848
35.9295737903653 -120.45534310852229 7.874999117647862 0.4768678681082034
35.929905020615436 -120.45327419612384 8.721405786003311 0.5992982603172544
35.92976831770136 -120.45426742268346 8.929340596168469 0.7343713312173628
35.93203809620169 -120.45493210081364 9.315960900812522 0.7659701080475871
35.93075603850836 -120.45605750021784 9.910329471601024 0.7854207840928148
35.92984131968382 -120.45587816126975 10.734426708596322 0.6746112952271509
35.93146518386055 -120.45475984494988 10.897662347385467 0.5188445873019503
35.93055564324964 -120.45763317211987 11.692790489027082 0.42816982321979025
35.93359395352992 -120.45829401357132 11.894175813840176 0.3658517322654824
35.93286778129994 -120.45742343738657 12.623840447171208 0.25539348061243
35.933203616312746 -120.45607134725118 12.958480306750907 0.15482136745748565
35.934690751263396 -120.4565611428946 7.307868410055678 0.07073955904020654
35.93633176806668 -120.45667605925398 8.092440026601976 0.23695244422330353
35.93522770406456 -120.45512485765218 8.283179582384676 0.35221752518954386
35.93420087704053 -120.45686640493628 8.76983078710434 0.4929648591971994
35.935038068731906 -120.45366873840568 9.530431504311704 0.5351396952043386
35.937646274125505 -120.45317791584553 10.12428725144804 0.5601751025312764
35.93398197942893 -120.45656699345069 10.360942876055239 0.44679538071425323
35.935738367508755 -120.45365997810367 10.802836631611362 0.26442825687458094
35.93419473840337 -120.45765714633498 11.334505824416752 0.13784990006726136
35.935357966301694 -120.45793990112361 12.022627017342284 0.07301439919326551
35.940957876752215 -120.45428761630869 8.934177814751447 0.04734712685452859
35.94249904428392 -120.4534141272804 9.251611106240338 0.11085710792431613
35.94046293365063 -120.45371137908118 9.918231013079131 0.15883734274478642
35.941423986001716 -120.45654054378919 10.37767049344327 0.07042399629870842
35.86031342272809 -120.45040823906284 10.24335071647696 0.02569736459691067
35.86390968118106 -120.44805018775493 9.107233469580652 0.017380362389834432
35.863030385012614 -120.44833298141855 9.26604362861151 0.08475377171334013
35.86479942603874 -120.45073741098183 9.930838030885253 0.1298726634103036
35.86210799222533 -120.44906580923278 10.490629529140067 0.06291957934226401
35.869484435672746 -120.44898493527917 8.973535953114563 0.06713319274035841
35.86650393861987 -120.44787076730401 9.719545229927581 0.13501265583122468
35.86913866985024 -120.4507095679295 9.990191079956032 0.18918705722717763
35.869150237783956 -120.4511747690521 10.498009472400318 0.13248692594416628
35.86906801838217 -120.45199313542528 10.971989437159218 0.02870260993350583
35.87414805993248 -120.45069757627238 8.885542384589133 0.07416516204402439
35.87111356127398 -120.45081456035196 9.739705368146257 0.1426473057259372
35.872332003663765 -120.44914509160101 9.818460959083296 0.2020321822155552
35.872966028334204 -120.4487464945594 10.51284939192779 0.15190345918511008
35.87235065682695 -120.44890386692093 11.067843827271629 0.06307249803231191
35.87600589217086 -120.44929605730755 9.239713912649664 0.06663809147465792
35.87558141125335 -120.45200401901708 9.696884429541525 0.1304925022868252
35.878902496396286 -120.4507308019123 9.996989991953509 0.18293717146771044
35.879619088615904 -120.45123653533133 10.526130874838177 0.12629030280421874
35.87902335794979 -120.44813801184839 10.86690711783802 0.03917356140450503
35.882517692382436 -120.44858551260351 8.92798221911875 0.08436805324193522
35.884164164569604 -120.45040185975843 9.466193473161942 0.12720028308994452
35.8825326934118 -120.45069943076454 10.033254555220081 0.15798307433471775
35.8826504250296 -120.44816265535364 10.6604048076146 0.08101108995705897
35.8880581781353 -120.4521388738435 8.84529277089518 0.09048291876520105
35.8857126030698 -120.44820217638336 9.352793319713353 0.13234178231695834
35.88430555430202 -120.45111718523873 10.014914440595224 0.15514683504938875
35.88712227044237 -120.44731713545703 10.41196586088172 0.05691176073103565
35.89238383771525 -120.45055141238629 9.013313778992705 0.045336049124444416
35.891572929856224 -120.44914921731761 9.526904575851505 0.1346659627411039
35.892996192557334 -120.45137488016003 10.101264261683921 0.17112129373505883
35.890255376287314 -120.45116464283011 10.724442123751196 0.06245841511462242
35.89600857348402 -120.44944814910563 8.5215929480249 0.040031554952295115
35.89407257050607 -120.45222323284517 8.837780502800632 0.14365704649015068
35.89453108089063 -120.45228422113242 9.398154036017578 0.11581497232195631
35.894004653152 -120.45012814506842 9.796832598719911 0.09033261501304538
35.89454309367385 -120.44957931788562 10.415973025577193 0.021989084254599292
35.900198830020706 -120.44799610825574 8.217079778312467 0.07965937332380087
35.90021125090134 -120.44791568357991 8.396593193415299 0.14920217640309535
35.900349665820144 -120.45194282387664 8.935502277870015 0.21396093956185785
35.89856594790429 -120.44992741576739 9.334838703667586 0.10541166039871
35.89836439825806 -120.44744484862515 10.139612641563668 0.017621600342143363
35.89918868839789 -120.4482944589499 10.647697078736265 0.019358341798807976
35.89812305732286 -120.45212974361402 10.753526352002348 0.01326931306434524
35.90553143180242 -120.45209587075468 7.265932724379495 0.028042905108735906
35.9050601379254 -120.45173184655322 7.754820221342273 0.14013015956007166
35.90656025591592 -120.44776254067148 8.542880287737473 0.21452702640442076
35.90667499216963 -120.44903525436709 9.099928150229186 0.33295763517958127
35.90462521001133 -120.44769525446819 9.41129717020356 0.3337900810869703
35.90256590175273 -120.44887860828048 9.849678194819552 0.331127460164808
35.90269890826756 -120.44835639285743 10.43821545373477 0.2770997242092268
35.904050215956126 -120.44830034607092 11.13175913707039 0.18977405735176525
35.902627947421756 -120.45210491396669 11.31363998538889 0.08318806083849621
35.91113711445713 -120.45040611951798 7.731170556227855 0.015103337235801874
35.90858746672022 -120.45019646376151 7.843131300128207 0.15743258131824664
35.91013570645338 -120.44722395361214 8.406998560144473 0.2708260552280522
35.90820080919808 -120.4506338750277 9.073643384677482 0.4404439460728651
35.90746369825349 -120.44985560643649 9.30036961690099 0.517202589440554
35.91021846787394 -120.45158348337486 10.125505285232688 0.5714527192493686
35.90958347323817 -120.44824601291073 10.676738731039816 0.4801665276964469
35.91015592926725 -120.44762638527273 10.92145681376363 0.33142527494097007
35.90685081053205 -120.44812697310466 11.477362163409492 0.18770623553909468
35.913303975088326 -120.44751114618587 8.203980725932588 0.11300978222714234
35.91187720929121 -120.45194356647718 8.362306027128033 0.27629257604925966
35.913317330761544 -120.4502858359021 8.75886757797188 0.4639868784483645
35.914734017186014 -120.44838312450696 9.518716024237667 0.542511017869467
35.913321676468954 -120.45057609902815 10.167391835205713 0.5985294523211474
35.91168616129587 -120.4476443638965 10.353400138660385 0.514869576308399
35.913381266062224 -120.45067221572131 10.850982478982239 0.3782612508811071
35.91326623183243 -120.45136318874277 11.361664287340004 0.2507157516010873
35.91191678340564 -120.44763481711027 11.771656472242286 0.05746880603732932
35.91633991557375 -120.4496456261391 8.118065207320592 0.09501389731722093
35.92021526253536 -120.44760229443668 8.488566330098587 0.25922026122479314
35.91923907275244 -120.44934318868603 9.225754689993702 0.43805362268347514
35.91896559436531 -120.45039586626628 9.325505021416284 0.5012627883696761
35.91921089061726 -120.4512196683845 9.96278264619643 0.5498628609514197
35.91705072962239 -120.44772750277994 10.653189275932432 0.47396145128558964
35.91866872082432 -120.44762125500334 10.969081594802105 0.359106695186551
35.9193175337251 -120.4476917592396 11.38874623608431 0.2672879078233178
35.91886683862946 -120.45020897001181 12.155973557172667 0.12388168052987814
35.92383433884031 -120.44782756218456 8.077381520896013 0.0681796487740118
35.92087525540403 -120.44949038504177 8.49353083461898 0.22031525947086653
35.921711602989 -120.45196128313212 9.183837641866438 0.37746748200718994
35.921655143840844 -120.45245962743623 9.299889608984648 0.4231877628605696
35.92270699096206 -120.45161280844249 9.862645151125422 0.46344951766779546
35.9230818170722 -120.45100777313601 10.710409337987254 0.38997362331384644
35.92351099974801 -120.45185766528503 10.840758403919699 0.28776184506605695
35.92028667225984 -120.45222930139843 11.709225208557283 0.22328642932507245
35.920613419388225 -120.45208465979424 12.058755604270447 0.1231778008307947
35.92499067572403 -120.44767018441398 7.989888855400323 0.019255371488946512
35.92525223450083 -120.4480868740204 8.747005125252244 0.13996120059207154
35.92684053601283 -120.44835260444695 8.932656439218157 0.2670108105431772
35.927197021202446 -120.44784171113044 9.313412887997233 0.2959479053588506
35.92743175303364 -120.44897664562532 9.981127791408321 0.3312718866638733
35.92745767103825 -120.45069138530405 10.30611801392623 0.26108321067766505
35.92571845581623 -120.45228960911639 10.972178149105908 0.16468997958467937
35.92502341007359 -120.45255894022007 11.711225154826419 0.11406121533138179
35.925062420489986 -120.4518037944753 12.025378379427355 0.03631047813280597
35.93016964913362 -120.44845354562013 8.930433033074749 0.08449455476846812
35.930773455978986 -120.4507191554066 9.695719017078467 0.10361788188107071
35.93095714283535 -120.4489909843205 9.807328229108336 0.1431921530717072
35.93009257410745 -120.4473796870258 10.28622991674192 0.08595129889615538
35.85289097598694 -120.44631668970347 9.260996347233522 0.04291674485613116
35.856964804090865 -120.44187452485798 9.91897378062839 0.06538987290031725
35.85860970882715 -120.44260765597116 8.638910239516083 0.003093881331979187
35.85929115552201 -120.44527444098603 9.248349186677777 0.12493253275926473
35.858232337328346 -120.44520278599072 9.718144698086098 0.18097543897052987
35.86034648451025 -120.44710961468978 10.148715087596925 0.20373624985335503
35.86097810242682 -120.4453380963643 10.697993671478011 0.10904056140042874
35.86230170600308 -120.44198030114917 8.223507468328174 0.016146484619605755
35.86465984190788 -120.4428726210287 8.47694492983343 0.11463223745380674
35.86589749043569 -120.44555950376802 9.248637733195352 0.22893479260245983
35.86535657830883 -120.44457906344492 9.295936550684145 0.27954726987856754
35.862999605662345 -120.44232565804492 10.026046080951804 0.30425385417254797
35.864447880691166 -120.44556515872934 10.709982339678453 0.21063928921593947
35.86513615651115 -120.44642565936923 10.800826249680696 0.062163860898587844
35.869155019788124 -120.44320809609721 8.115157836815778 0.10209146812967525
35.87063900099556 -120.44616654785054 8.33518495246199 0.1811688389552678
35.86646890578894 -120.44533236803102 8.803276556226683 0.2860161555539872
35.86952804263882 -120.44570331839283 9.520302109748634 0.3292279068408526
35.86649022906826 -120.44664690082172 10.042411155998256 0.3555372965269112
35.86635684648539 -120.44577932665571 10.517201877727006 0.2668328734342858
35.86629908772244 -120.44550409933593 10.761757198392209 0.12456121036726572
35.8721411023758 -120.44540262024137 6.7617061565816385 0.005001516436324883
35.87194726304279 -120.44717658899518 7.465685232913483 0.051668721696646706
35.87325843720181 -120.44578375011736 8.068776636783303 0.13976579239634648
35.87473090040839 -120.44623028405903 8.37649654203775 0.20267151529335975
35.87370703770128 -120.44384667050528 8.92817756629944 0.2955635646104138
35.871291393240554 -120.44272437669395 9.310778136878076 0.32505366931564134
35.870771420281386 -120.44412212298548 10.014202190642102 0.3473164222421982
35.87490972091797 -120.44565255912727 10.312640059378623 0.26386481275000395
35.871608976251636 -120.44229525546729 11.174494459424224 0.1380663010428848
35.87759971314086 -120.44690369619919 6.855154913277898 0.0005451088817867992
35.879324795244 -120.44448094980584 7.479804973689888 0.047645018389804505
35.87679452842472 -120.44247105420996 7.984083799629926 0.1360174030475362
35.87648300225428 -120.44464624241897 8.48160537186529 0.19091004711731246
35.87832902098046 -120.443199067484 8.890881344881931 0.26810187267985414
35.87817001900273 -120.44265946035696 9.297192078977144 0.27268995291843556
35.87846530353699 -120.44659589647854 9.926941375628202 0.2803417950342305
35.87752293310465 -120.4450849869485 10.69293921985971 0.1972215118344349
35.875471159473214 -120.44576623105105 11.17760212610963 0.09056255316560324
35.88106851755551 -120.44288969434447 8.072287974020172 0.0769874046059197
35.88405071951839 -120.44667473256268 8.36416477849812 0.12949314493720332
35.881164001702146 -120.44667243114617 8.879690588376997 0.19604412211758138
35.879845855513146 -120.44554659237826 9.73359571886551 0.17860450797023752
35.88307870595832 -120.44408966577092 10.041097242331519 0.17179544742913985
35.88001679125785 -120.4419868015186 10.545205862064186 0.0871196095380971
35.88473171999504 -120.44551236683397 9.165399164108452 0.02727159813877781
35.886930556368306 -120.44591127940235 9.563516943289201 0.0619668278274579
35.884616731704654 -120.4455031033191 10.111421574587467 0.0750551167564462
35.89250575980725 -120.445421255821 9.539174364548737 0.030786946113580686
35.89026683910013 -120.44276054119678 10.173867881332898 0.08218073002490726
35.8948010875263 -120.4449282856738 9.132073472239036 0.07348294752339157
35.89709541362602 -120.44713691064955 9.583121536482876 0.12389909351766744
35.894174367586196 -120.44224081968466 9.76275795138156 0.13187827014189307
35.897162380163756 -120.44184412846592 10.324811527562353 0.03784359271549558
35.89951478914272 -120.44537312727869 8.204036823628785 0.0806567564603548
35.898217480037836 -120.44372045084695 8.550032826843678 0.16363965549236514
35.898178827951284 -120.44386868721092 8.94822587007018 0.24895170724241533
35.898433845016456 -120.44679224303083 9.34115343487116 0.19148372447080098
35.9000144487431 -120.44314156556678 9.994919844265583 0.18854620026480787
35.90224618464596 -120.44697509780976 10.426091491571809 0.06490697249044672
35.9025953255627 -120.44538294145498 7.868693585843348 0.09640267368413771
35.90309955455298 -120.44381406816494 8.501703104147923 0.19750498263811525
35.906446614511594 -120.44515801177855 9.06022433617057 0.3218597057922197
35.9036421556478 -120.44617602456573 9.447243392365825 0.3306830006530695
35.90254715292954 -120.44292741652308 10.16882092786185 0.3177994484947931
35.90301607464429 -120.44248504685407 10.378050760265936 0.21562762135109806
35.90243602453709 -120.44706194826796 11.099459716680304 0.05605533626962731
35.90792212892884 -120.44684288358576 8.493539665460757 0.1270725019706674
35.90983142410983 -120.44453660579359 8.849295793552828 0.28514210040989846
35.90717178358602 -120.4424224115823 9.721417924391975 0.31940342348834255
35.90758172132274 -120.44434658450473 9.894681322425956 0.33399573838788127
35.90983975453854 -120.44187525159 10.689339803533935 0.23486696035074886
35.90894375893495 -120.44372777894279 10.771278570345713 0.08232310510511356
35.914737170971385 -120.4447170000704 8.530399080360057 0.014265878268041522
35.914843419723816 -120.44570485152315 9.155301357284788 0.18402673978357773
35.91323528075148 -120.44440688895163 9.434502468250644 0.219871514818879
35.91324477759142 -120.44539628292678 9.758569081842053 0.2432638001895617
35.912534922445616 -120.44623452553147 10.484189567864032 0.16334393142464437
35.9150664410725 -120.4435885926163 10.798533317706884 0.04193600372376408
35.91648374415141 -120.44406202624903 8.83608799946553 0.07442638072867393
35.91935603303339 -120.44347749189699 9.625853950835523 0.11155206209431322
35.91723654549842 -120.44471169175245 9.780255088722404 0.14492179448095552
35.91673352417456 -120.44653591788985 10.567480993581752 0.07405999658720622
35.921343848037004 -120.44620612619549 9.852856493667753 0.0209978600253334
35.85188206624777 -120.44084090548054 9.024126140133097 0.024986940515621472
35.84995040778719 -120.43712262162583 9.590319667476301 0.0890130283114632
35.85079949601768 -120.44101650773571 10.03826769883142 0.1104209647432013
35.84850086811358 -120.44160590444942 10.410912344304935 0.01741465094627052
35.85715180925327 -120.43727119266455 8.520480924188215 0.07276764142985866
35.85394274320357 -120.4405924251218 9.209482451635647 0.2011627525395207
35.855437840434334 -120.4364755742549 9.698301674321696 0.2567992777005236
35.85674298761039 -120.43620487550143 9.902262485571555 0.27355477286448043
35.85524928165877 -120.4394284072316 10.537242668649307 0.17220142299917432
35.854803531025254 -120.44005962239997 10.980636022769938 0.021089961844613342
35.857561282009215 -120.44015356008494 7.765291990935648 0.11535129753913549
35.85809339918174 -120.44128691598664 8.343916874537081 0.23067016785277533
35.85866963140619 -120.44078034647879 8.997644104368499 0.35206909532282865
35.86038132050351 -120.43883280754756 9.71963652034426 0.39988491687205147
35.858538312361446 -120.43900009929536 10.187910309511677 0.41355675148357507
35.8596519612225 -120.43675021497253 10.437676292729424 0.30576146905542745
35.85926666780044 -120.43693629509367 10.842982445170062 0.14532056468441806
35.8651706573668 -120.43758920267115 7.634175124158283 0.10693574286979142
35.865051628272354 -120.4383781596789 7.818253406229447 0.24688036802085417
35.86291243875547 -120.43800194775714 8.540549739826535 0.34914360427101016
35.86371393387819 -120.43930712648007 9.063367256709094 0.46309657563645606
35.864885321667735 -120.43813010610894 9.540714366807393 0.503299386538697
35.863933214967844 -120.43755668435615 9.907956724757366 0.5158139244299242
35.862719466719 -120.43892948895058 10.508069841267396 0.40650962019323494
35.86302286360952 -120.43850777664296 11.053559968003102 0.24226619897274146
35.86342890912991 -120.43808607227237 11.52586238136047 0.05707092131253939
35.86986348363023 -120.43886433906863 6.984494401884105 0.10743073462667166
35.86721307434223 -120.43644140978651 7.471382867546656 0.19926415631405317
35.86999956449486 -120.4409588307798 7.861105995220717 0.32671385098980743
35.867611458970096 -120.4406068041098 8.399903582450435 0.41610674411149035
35.86847403150064 -120.44040041719532 8.876428743373433 0.5212767695494775
35.86936985222556 -120.43693093390127 9.499275991435963 0.5520287392272646
35.86799349538459 -120.4390629280735 10.075197684610922 0.5638338579691232
35.867292534330566 -120.43740333607913 10.67685465275341 0.45853763709636014
35.867144282640396 -120.43748322799914 11.069918030502693 0.30101906535879347
35.86969665472589 -120.43754562074838 11.680763643088707 0.11713405571686836
35.87211119115714 -120.44038841944668 6.7554930937300535 0.12402765480694862
35.87441800516172 -120.4409052351354 7.4997660212458594 0.2179139896285227
35.874707174935295 -120.43972614847797 8.05709062880434 0.34034864258257674
35.87169792427453 -120.43637737224549 8.32355606382737 0.4183246432123066
35.8741835190017 -120.4385941537928 9.193053162902698 0.5113978065504873
35.87298917944188 -120.43853091218227 9.615894630648235 0.5273294683746118
35.874399212272984 -120.43947385264808 10.11388343048431 0.5355692876412329
35.872588497784946 -120.43960055217397 10.390021108100104 0.4380530821946532
35.87076040454538 -120.43673459678567 10.827378451760811 0.2991092670203334
35.87279586632428 -120.4367276136504 11.747295001079596 0.1367455476191173
35.87609589660206 -120.44161226173846 6.848241395047775 0.06111208202034496
35.87787742918152 -120.43975958400657 7.27403928152371 0.1577146810011802
35.87888053185026 -120.44147184974936 8.234584836936834 0.2753026926118664
35.87758944149976 -120.438065164977 8.405592092103813 0.34030024953704324
35.87533910301986 -120.43842183468793 9.170303912468045 0.4173329916363562
35.87526262250201 -120.43912291990075 9.40102607541467 0.41333940104660355
35.877034148262354 -120.43845700501225 9.99502734342688 0.4150064888461315
35.87621005670807 -120.44070909815692 10.666792439157012 0.32724970356135163
35.877548749622115 -120.43697534660967 11.100835411364411 0.2124395123190513
35.87889665446579 -120.43914489914359 11.637156318064074 0.07911363019031321
35.883023080009664 -120.43743284717651 7.492766793420823 0.015130485824300386
35.88012396650051 -120.44014555292935 7.943978926193358 0.10800301581608986
35.882347658492115 -120.44007451772725 8.542560909221628 0.14977660699398357
35.88175884281225 -120.43968763107037 9.226148823908378 0.21775213121822798
35.88094554964219 -120.43990808067997 9.312199546819874 0.20616218530620817
35.882902345657 -120.44041877258208 9.892676166785636 0.2096233915636947
35.882776737572506 -120.4390523337631 10.595178328729926 0.13900873602381544
35.880871711002605 -120.43894439904464 10.898107095016917 0.053454909194914205
35.89347255083029 -120.4394993721105 10.122550377756967 0.01928878971901838
35.899960703342046 -120.44043320448799 9.059901918150373 0.10363564855796294
35.8983842444479 -120.43659150365654 9.54823933175486 0.10110648981665708
35.90167826004662 -120.43979820040958 9.848458007760568 0.12307390127732157
35.90028619831309 -120.43635813255615 10.39486319874483 0.022115970620043095
35.904249113313114 -120.44019448489341 8.257766864350312 0.045577860885110115
35.90635250921929 -120.43815506190909 9.161898073335026 0.1814673763384924
35.903939764498105 -120.4397779393128 9.503377365005413 0.18065648866756054
35.90529551246478 -120.43808332443201 10.138723853736634 0.198383194973639
35.903528984408176 -120.43781709549245 10.251727393977083 0.08508966670638508
35.90901284689512 -120.44082768202735 9.119619553479366 0.10724606988935881
35.908702679399084 -120.44164651145358 9.692869905023626 0.09979457690592344
35.910514593223965 -120.43717854624498 9.809526271501477 0.07929874505596636
35.91022970977279 -120.43631211386608 10.444010770257394 0.019088818421921307
35.84783937340659 -120.43100108837369 8.820548217439075 0.0658585664196081
35.847924921257295 -120.43219843201115 9.283887420761902 0.1397171168572479
35.847470004804066 -120.43526154703208 9.927139062591772 0.16901465003882155
35.84669012104204 -120.43280793756098 10.345287037529276 0.08462057869880331
35.851081803351946 -120.43505305509639 8.74128836682948 0.11555488849692185
35.851541235020385 -120.43294826594685 9.062672883612791 0.2576582451476219
35.8490407035428 -120.43409351852658 9.698350440189552 0.3216056522591515
35.85265686258581 -120.43498061864082 9.975376318003807 0.3448681463492957
35.84824474527882 -120.43594452107608 10.365058416164192 0.2509811684142531
35.85108221438647 -120.43377379177858 11.165771819673127 0.10963711400294528
35.854130351893055 -120.43424406521243 7.713106549023052 0.005120068316254238
35.856204454955616 -120.43527200759364 8.238516554001581 0.1735473337766262
35.854547529312576 -120.43150946307021 8.741813648226564 0.3025709795555878
35.85310889038935 -120.43282287754826 8.765382296788632 0.4351555693172607
35.85613838118855 -120.43157827430353 9.624966804240886 0.48906287029176027
35.855272442092044 -120.43090316394753 10.001761697906183 0.5066020071298709
35.85282894771229 -120.43544452047966 10.6723945887834 0.40405028452391156
35.85427052279881 -120.43601248729881 10.801280322371488 0.25172948844231935
35.85301009696615 -120.4358341307782 11.601198056780374 0.08656142513672023
35.8582974810078 -120.43351910717885 6.754756046284759 0.06170543017146115
35.85800796206215 -120.43249190708173 7.318053505169092 0.18551543937155812
35.85727755542517 -120.43083266543736 7.791270465597838 0.3445094191486202
35.85950373071158 -120.43456539379319 8.321451527147756 0.4621785592811264
35.8611536509592 -120.4350930825866 9.209367778537441 0.587271000589422
35.86036816279655 -120.435468229853 9.603036328395927 0.6328530201513621
35.857214693768974 -120.43410734378216 10.022604529086706 0.6468708322234014
35.857682686739295 -120.4308828792106 10.32258530290872 0.5384294641472692
35.85953484475642 -120.43544252433789 10.754248317422404 0.37839787888675136
35.857306633959304 -120.43101659477095 11.61301102137856 0.2014510847022398
35.86507492336339 -120.43346239364621 6.306256314366008 0.03502221929236942
35.86386457207063 -120.43129454383977 6.862700895491945 0.20312840296879517
35.86595877619313 -120.43314440758635 7.457013935481445 0.3190490811690226
35.86448207672214 -120.43141370594005 7.867328955266458 0.46976113095633204
35.86274627473202 -120.43361212872735 8.502916646322156 0.5782017499388884
35.86376012849487 -120.43200921652353 8.948417275405363 0.698110421747496
35.862125344431355 -120.43503907569351 9.645535811616682 0.7375891667502102
35.86620210578184 -120.43239682787855 10.101345070653217 0.7514033922827121
35.8622564824379 -120.43082818522804 10.63775717087258 0.6433282967279105
35.862345765825154 -120.43243781634534 10.775563541764988 0.4837944012679261
35.86345528082566 -120.43294184372591 11.449911260938501 0.305329297426904
35.86332033214127 -120.43398724775989 11.887630147611556 0.03973022617476831
35.87042564456609 -120.43215255300133 6.364535399845358 0.08422338656384253
35.86928172900831 -120.43202828927939 7.00041613699203 0.26605447896409046
35.867281985329626 -120.4359786816045 7.687820395925406 0.38441911715992017
35.86853612683426 -120.43060265571194 7.815777500085405 0.5317863385802639
35.869690683071326 -120.43503004115007 8.70811994042028 0.6337788320764395
35.86886901021807 -120.43301441799471 9.14241210518114 0.7501337804402878
35.869151420225016 -120.4349435612828 9.498299633522139 0.7848271987098951
35.866489925804245 -120.43512327622626 9.92677737286132 0.8014043088042374
35.86669338596555 -120.43396078075538 10.548563302540213 0.7004667811847721
35.867616985204705 -120.4342726027094 11.136756443319971 0.5520277938269884
35.86753768386072 -120.43195300919717 11.667988271924813 0.3850078133870997
35.866624190747984 -120.43068431077914 11.856319910151418 0.12543930601984554
35.871777037357305 -120.4333856260903 6.314036759448253 0.030700670896741895
35.871728965279964 -120.43472214248398 6.8499430945899125 0.23560089263411185
35.87168375171216 -120.43354727100714 7.660682998028745 0.3625041688205876
35.87383593658677 -120.4307758716578 8.107729887137243 0.5093310994452406
35.871800892410555 -120.43415708233043 8.457902557019807 0.6055109258522913
35.87303393562688 -120.43540824448827 8.865076018280568 0.717723807704879
35.87435436786701 -120.43088653109496 9.383768692697696 0.7472329661407214
35.87278873888082 -120.43379064530295 10.101943001050282 0.7683087022850053
35.87136660591492 -120.43226081556742 10.395852669333038 0.6798712021148531
35.871234425552096 -120.43094639192381 11.134734046492547 0.5497194141764261
35.87184380157317 -120.43431680987962 11.317246472314588 0.39921747374060157
35.87105042296196 -120.43523986456873 11.760023180773889 0.1443710170274345
35.87559889872992 -120.43181320023629 7.232770536346103 0.12668849572006602
35.87905877330799 -120.43243753131179 7.7260980310772265 0.2475357969579845
35.87754299170028 -120.4325024397938 8.133251106119486 0.3845295490704845
35.878714321157986 -120.4322641800157 8.644025187200896 0.46860138042711996
35.878416279888704 -120.435269073821 8.938811670446277 0.5736665803101517
35.87541929737221 -120.4320778516596 9.649120235200693 0.5982368154454722
35.876506441516554 -120.43182614181434 9.77345216069698 0.6265059086960086
35.87659165892414 -120.43140874434324 10.4892183012029 0.5545283496493595
35.87848713517316 -120.43514737307324 10.822074218458129 0.4429163925448621
35.87908221226808 -120.43193772185103 11.393040194750668 0.29444902550417923
35.8801047159065 -120.43100075240697 7.734738687852577 0.04555378132956219
35.880674838704856 -120.43068953930423 7.76844185550649 0.1526717705374334
35.882432271233505 -120.43561792776524 8.403845629222346 0.21217872872787452
35.879766545268616 -120.43213882345977 9.002777068884592 0.3103957013049244
35.88182699609414 -120.43482851168402 9.38529062147504 0.3380622712828162
35.882547994929126 -120.43528364166812 10.135088193276793 0.3813071634117858
35.87974925114269 -120.43512619800565 10.541038373935066 0.3299512786052734
35.88002256100496 -120.43542957036577 11.095441675962274 0.2383823309825316
35.88113143988257 -120.43157603853282 11.527876870835238 0.10588895417935207
35.88656258236162 -120.43582917134073 9.205783967564992 0.00608270521078724
35.885406417234854 -120.43377394427799 9.401948473768865 0.055271018088554856
35.884934740727985 -120.4332007850008 9.950442698115545 0.12268615611186372
35.88592669168861 -120.43352390211362 10.65998502267152 0.08990068314695447
35.886790081558836 -120.43060166332262 10.998774072816264 0.01048853959958797
35.890985827102085 -120.43604975148922 10.04133096314553 0.011931534245553495
35.894344427820805 -120.43467933704201 9.938202622836183 0.03186577030767969
35.89458601397036 -120.43547838535413 10.730839885998428 0.004655924463238171
35.90146432110442 -120.43252756537197 9.389000873089227 0.012841011092372328
35.90002234615771 -120.43235046485754 10.051712267365032 0.09091591096921134
35.90039130171924 -120.43167501187271 10.41240070137204 0.030179239414297534
35.90241194638883 -120.43488710931095 9.0279470232614 0.07587425057403593
35.902628653901985 -120.43067358683902 9.660498650843717 0.1551075948830657
35.90476980900537 -120.43438441485605 9.887950565238118 0.20462240646200774
35.90298859140117 -120.43328835367127 10.568697873628032 0.14336497406962587
35.90226172997373 -120.43091847176827 11.207793319732204 0.008093016755557512
35.90857084157129 -120.43385577115261 8.987684092845988 0.019622363713177486
35.91075003224965 -120.43491023806742 9.306871672604384 0.1098021384573709
35.91045749903307 -120.43360462341941 10.074236049141794 0.1678707268189492
35.907518153102956 -120.43167462272828 10.384990615672264 0.0852925085721961
35.83726503447181 -120.42620045952029 9.67935252136466 0.03430375824175927
35.837349156158744 -120.42636454557547 9.887330794131183 0.06947914706714979
35.84127185308358 -120.42935707183862 8.852327942132444 0.1358350060174926
35.8397983870088 -120.42826518160754 9.587972513905108 0.21836826981137117
35.841832196949646 -120.42892437557623 10.139724320326241 0.2559724362485138
35.84152270014705 -120.42979463731767 10.408354953732225 0.18202862417939125
35.83926790673221 -120.42663702936672 11.062550310979791 0.06456305276758015
35.84696779704674 -120.42793228643434 8.484981362552057 0.16105808159576226
35.8466201358011 -120.42700104988994 8.94354275149692 0.321334359433188
35.843807372920054 -120.4265776208704 9.70388407051538 0.39730861725441663
35.84719377152858 -120.42520161578018 9.849203258619276 0.43241779479781206
35.844134650737 -120.42964311264316 10.734415587831636 0.3524067042237276
35.844920333533956 -120.42507306176486 10.783962477698537 0.22793666952816077
35.844877731169355 -120.43011070739712 11.369983723646545 0.097926019950921
35.852109080566166 -120.42678458708097 7.599230391395332 0.022540187126780367
35.85032396519916 -120.4267319365822 8.193424694567279 0.2099053360861595
35.84899770920178 -120.42843282801834 8.373751562812732 0.3556185792763583
35.85160740169813 -120.429057283407 8.842256465009244 0.5033893704995771
35.848782854722096 -120.42831524458931 9.295318124941508 0.5687298637302071
35.85158600994741 -120.4264655528919 9.891919246900406 0.5986645255041515
35.84927602635671 -120.42851723440415 10.28818325525105 0.511483741749946
35.84953600902825 -120.42548190776232 11.001449355048074 0.3790143482933499
35.84834811347404 -120.42780325711583 11.704996270205923 0.23936367731662292
35.84949665425424 -120.42596690278508 12.113466040247523 0.031763254254876756
35.85615844380753 -120.4292395346739 7.163158686400279 0.10195926799472696
35.8550491172713 -120.4296129511815 7.577761917890706 0.235380840676836
35.85438193877055 -120.42992352554833 8.087531906759596 0.40565916386627643
35.85682975029798 -120.43012581291892 8.685958037035656 0.5343122588129283
35.85568799199304 -120.42984603805427 9.14012322440555 0.6704079437254776
35.854721871648486 -120.43009123688884 9.444105067466316 0.7251483262358178
35.855847954018394 -120.42708056238627 9.948694482699702 0.7500511708577626
35.85432911705752 -120.42693610284823 10.529965486457646 0.6563944700182637
35.85651891501339 -120.42713608500166 11.248275178361501 0.5157723262679081
35.85536074442947 -120.42755166847151 11.390429125201111 0.36312062635489367
35.85459078988944 -120.43040986288612 11.896730079448453 0.12750677131339586
35.85977467327344 -120.43022941673374 6.2898320784092565 0.09255735919050559
35.85796467054297 -120.4282920424437 6.828174917937943 0.28027522746203565
35.860064048134284 -120.42956004733801 7.527603101520286 0.4060178875772753
35.85818529423803 -120.42692071682633 8.184553788500569 0.5655831321021749
35.85958578350981 -120.42741613498706 8.330915836355363 0.6821640196569837
35.860382421854375 -120.42778324870795 8.873004176550216 0.8106344948488666
35.85751314368841 -120.42833743315187 9.700629863115013 0.8577419012336065
35.86030307122857 -120.42769996918683 9.93679629055843 0.8802994333215156
35.85930738540661 -120.4285498939253 10.308269736130953 0.7831743132521434
35.85969804642958 -120.42587676704152 11.18018161707699 0.6385814096628022
35.858172038714805 -120.42866397571747 11.323835963532705 0.4787077473812946
35.8594209269781 -120.4265069755486 11.773903290538753 0.22652431917835505
35.864017231670275 -120.42568549537134 6.268167787310732 0.20738228069062378
35.86517581298395 -120.42706726360815 6.926100656087387 0.39703737946722306
35.86509263017929 -120.42615419044199 7.656767071661943 0.5193119424560376
35.86298200467217 -120.4261480202571 8.236450457438771 0.673046002498899
35.865901695638925 -120.42570896418783 8.53986915492768 0.7829230532140286
35.863142564669424 -120.4277714672648 8.865358700053465 0.9089678826419061
35.86466399114833 -120.42731915858349 9.395777054126267 0.9528344031666675
35.86234549866453 -120.4265051210653 9.835183300359088 0.977255905269025
35.86368295364496 -120.4269468381433 10.477622219112218 0.8826400973733575
35.865806896679544 -120.42533009201019 11.043093433203525 0.741843057275435
35.864637564174615 -120.42840594945444 11.536432082908016 0.5864895376701249
35.86432611951562 -120.43032484271004 11.792865134207895 0.3367457369438331
35.86531213109999 -120.42838017773101 12.70206179133952 0.007648526792631231
35.870598060018835 -120.42900558322872 6.33881416965302 0.21708027015160228
35.870245259916395 -120.42586254091563 6.9343340938723514 0.4283821241631268
35.868444302900656 -120.43034910343367 7.499981052754729 0.5567334480190097
35.867216519708634 -120.42631935413971 8.003535007104155 0.7109421758869255
35.870454199175896 -120.42501000676397 8.741373333387106 0.8199295392454682
35.86707567815328 -120.42674675729543 8.875697716026957 0.9490864238218008
35.870671401970114 -120.4290982290029 9.700325583334447 0.99457097785364
35.86811532828918 -120.42992771258695 9.936114307387403 1.0254380354506085
35.86794396763713 -120.42932814211166 10.353654590190652 0.9389764950847359
35.870513287935175 -120.42857595023888 11.036548630987369 0.808677569478055
35.86917663769829 -120.42602304455119 11.537212620366455 0.6653813298514163
35.86826397889643 -120.425594007819 11.920635306410343 0.4277861317170527
35.87028537432303 -120.42784366056738 12.486347658761652 0.11878597751812334
35.873715668174896 -120.42972496894221 6.383504962360802 0.14559952420641994
35.87249024375254 -120.4257838236804 6.836310566517424 0.3654062731150042
35.87266418940502 -120.43018512373214 7.351559217284706 0.5000631994525305
35.87443678674445 -120.43045988235852 7.983321011538641 0.6574871407748488
35.87217789005147 -120.43020570107474 8.731731654509577 0.76915292846992
35.87403421630903 -120.42967938898256 8.947418060513108 0.9056359851344515
35.875149384376535 -120.42847598890901 9.667866462783886 0.9573565289033112
35.87240206325786 -120.42915615839587 9.92166937065064 0.9993433499310981
35.87284386818737 -120.42768098674607 10.57531891139589 0.9257420628154607
35.874542591877045 -120.43033903536025 10.770639147579326 0.8076889511167626
35.872880369932375 -120.42690977743182 11.498135811144568 0.6701710151019027
35.872474251347676 -120.4299298277963 12.03973157599709 0.4300563663871381
35.87264695243679 -120.42685063254876 12.652660465620416 0.13142980085955527
35.87766241255856 -120.42560690185454 6.68808729068156 0.014747088595088683
35.87751390269065 -120.43038068387396 6.911913861787152 0.21565956104898854
35.87777079011084 -120.42964109219012 7.445456336258195 0.3431361518816201
35.87727109427794 -120.42622150487036 7.958421183932032 0.496592924945074
35.87748457115164 -120.42780124598436 8.61286287859593 0.6066204193987813
35.87726719536665 -120.42961996502616 9.070630302563597 0.7493931163712793
35.877998740158525 -120.4275260524994 9.748574018184627 0.8105609011636167
35.87844089933986 -120.4273986774961 10.028542278046272 0.8694707866755427
35.87909845662526 -120.42598917424704 10.658060522047471 0.8138070585449487
35.8784136946896 -120.42808815349396 11.248011168189665 0.7068305083543763
35.87541778843467 -120.42763344260867 11.735165327182317 0.5611382896050434
35.8784547940469 -120.42721383067604 12.156821214924252 0.2896685334834223
35.88405857340689 -120.42538534672025 7.611546077894575 0.09674288000462991
35.883964776362895 -120.42821379890529 7.813249176184399 0.23352957669272134
35.883263661936596 -120.42834143800002 8.401971585856698 0.32810182625235207
35.88198417053105 -120.42614645024868 9.033889427430989 0.46756403991399703
35.88041487020364 -120.42798329547949 9.699224361259358 0.538524864455408
35.88365173974322 -120.42620187791418 10.18432501440946 0.6217033083187599
35.88331915712503 -120.42862949428056 10.459024457928626 0.5863436501492486
35.88215799317026 -120.4268617754068 10.855004556718606 0.4834907122203566
35.883856341391436 -120.4274802588292 11.610929471341347 0.3337494217478996
35.8814930547429 -120.42804095436121 11.91865317524641 0.06566522054365377
35.88653644792789 -120.43046581384904 8.25253166010278 0.0012260515151668407
35.88653102413795 -120.4292480130686 9.119485119092147 0.12784670825623384
35.88592055715186 -120.42547287232992 9.506019641710825 0.20861853472699574
35.88470140541989 -120.42829214364623 10.144592484424676 0.3215489020359966
35.886543322302984 -120.42736458340141 10.292988773754649 0.29595685310134046
35.886230993966024 -120.42816637333678 11.020041608527581 0.16367654121244907
35.8906627667483 -120.42556294727217 10.216490645038757 0.10774694335933685
35.88979063607128 -120.42762572946232 10.491659223266662 0.08795584748082032
35.89986135855154 -120.42876461908739 10.917726352813741 0.017777023244891915
35.90133745286398 -120.42931386643072 11.628168428557025 0.008810164318267592
35.90324162937109 -120.42882964196316 9.656436314542809 0.013689739200593536
35.905323875873634 -120.42898022013341 9.994062380533732 0.08296010826848509
35.90339539152232 -120.42562938808528 10.697092835578609 0.09003526609873974
35.90409867556793 -120.43008745307753 11.242494608248352 0.050704642159108186
35.908838489531625 -120.43018258457779 9.564072633355169 0.0565807220409757
35.90709798377484 -120.42980826902297 9.946311863949163 0.15981071254074322
35.907407248246955 -120.42580725713002 10.33651517087804 0.09858736781608975
35.83071585425796 -120.42239521691864 8.752166094403275 0.108287551056162
35.83374329685783 -120.4227944449289 9.549135491067057 0.1705758210475387
35.83352249097379 -120.4244159307879 9.87816357499142 0.19317919665969158
35.83114996701058 -120.42240219247084 10.714743995788124 0.11777617974037272
35.83339022097677 -120.41969935320357 11.218818257439704 0.007643723006690701
35.83904778736807 -120.42392197835066 8.541652297787095 0.09814529470738355
35.838809635568296 -120.42016299497745 9.151130943868381 0.2672313652184121
35.839004774468656 -120.424090356174 9.273393399364773 0.3450927453629833
35.83712628312772 -120.42071508910173 9.963415725523701 0.38154946383240423
35.838905368187206 -120.4199876104935 10.449515030045859 0.31173047747201205
35.83533388638477 -120.42022851227077 10.885337201408701 0.2036295053924049
35.83485915756469 -120.42188639885731 11.524043600691655 0.09630398866596035
35.83975522555804 -120.42328980139193 8.123952275136741 0.06870471691925692
35.84288686250882 -120.42082633250834 8.646532232142862 0.25216227428626903
35.84047444105237 -120.42208595265045 8.834280302767862 0.42597989986653134
35.84047257459907 -120.42257104101135 9.431518928163511 0.5086653899600861
35.843616487057936 -120.42102586689971 9.757331412380152 0.5519997272731567
35.84004986219953 -120.41990787061826 10.406510712416837 0.4837399985126138
35.84205432168071 -120.41985814499515 10.787603438861982 0.37509900799230705
35.842753570818914 -120.42275109903213 11.53195175534504 0.2671788365081932
35.842806065999 -120.42162473932196 12.102651755800366 0.11155930860409898
35.84772553460821 -120.42165379822501 7.686213780240159 0.05295950210550385
35.84731535868774 -120.42105121984018 8.01171328829574 0.2587351458203767
35.84592183565709 -120.4240554810655 8.587997572162898 0.42428436605184683
35.84438612173495 -120.42074264385265 8.979992683740264 0.5893097896297225
35.84453675639435 -120.4221958033448 9.409316147437496 0.6667928563619933
35.84548204512601 -120.42136615777846 10.217919978508016 0.7105885118745713
35.84388411906778 -120.4200975464203 10.5029320619034 0.6408168425131031
35.846212901433354 -120.41967432056555 11.242627822634756 0.5308192991852967
35.84511736156108 -120.42357893557413 11.362632548881574 0.42317868491211386
35.84595132132453 -120.41965565124423 11.789746783968862 0.26633590845118527
35.845427899399624 -120.42391421185432 12.403195944960958 0.06765508440760419
35.8500154763295 -120.42191511090222 6.760573110367276 0.14278180250947525
35.85036148457206 -120.42136053292117 7.695754073232226 0.2772630071995991
35.8510236088048 -120.4196686499548 8.057475838454474 0.4570192028462703
35.85179979455559 -120.42479117601516 8.253261172196963 0.5986770169959461
35.848817330247726 -120.42260167197689 9.166644188878966 0.7487258735875258
35.849764418866286 -120.42263894614601 9.252231379009768 0.8156875114966804
35.850493976635384 -120.42332342062343 10.024069482412353 0.8563461249926534
35.848896888212174 -120.4217474421288 10.732577181858806 0.7834308273732152
35.8504943091097 -120.42113627410545 11.124925989681065 0.670876813889204
35.84923981966544 -120.42468748574292 11.278190660036437 0.5598099203241769
35.85035472202616 -120.42448823777293 12.037521875311688 0.3893528094046299
35.84909456695772 -120.42330690224017 12.742273469965594 0.16608346695030612
35.85707412377893 -120.41943600366851 6.442305358513691 0.18571352236838848
35.85548692435411 -120.42235696381226 6.879408222207026 0.35347460793469176
35.85505827207889 -120.42485348529712 7.300328898740917 0.47181612880788765
35.85613077440829 -120.4213691900794 7.77672029181759 0.63188759395231
35.856767830608305 -120.42458830789964 8.341409113812572 0.7533207782003488
35.85450971385682 -120.42301171859663 9.044100487252663 0.8899014304951058
35.85707765253619 -120.42332477969349 9.573805035614255 0.946434734821419
35.85659426565586 -120.42200248084646 10.203536334515585 0.9837473610212607
35.85498669376771 -120.4206539176985 10.367105975944357 0.9079318484920825
35.854704240741185 -120.42015329309451 11.072544703618718 0.7922823499400997
35.853054624484884 -120.42431907882604 11.550029697606684 0.6738156924298739
35.85610288199787 -120.41962094610615 12.224489284345422 0.4779798711250088
35.85307586202193 -120.42063847400264 12.671501167200022 0.20340441851881755
35.85943091088214 -120.42164238754054 5.943246895598316 0.025455874474558417
35.86104299431596 -120.42185950611682 6.252672658687278 0.32142913972363696
35.86053201073659 -120.42444459031327 6.902921204037465 0.5016117696626187
35.8611945465164 -120.41955829159194 7.505724686145821 0.6147735937573534
35.85812912333777 -120.42407217385065 7.888185583678823 0.7635914712942602
35.857971904963456 -120.42435430061111 8.689067523574154 0.8719747682311298
35.859525925493315 -120.41961279406175 8.883058512311168 1.000596530934522
35.857434772374766 -120.42017019130346 9.553583056305289 1.0502786095392813
35.86091131424705 -120.42175256810646 9.86593051959185 1.0865925723247947
35.8602161041073 -120.42442233156228 10.321751238536098 1.0098300050362197
35.85803238948046 -120.42435825265942 11.083691125169874 0.8939232773491252
35.85933326062938 -120.42166207910358 11.39189077994825 0.7729175572110725
35.858026898066264 -120.42398053402749 12.246084292209941 0.5638811022856198
35.857295673060214 -120.4218960791589 12.565950797156681 0.2672923531876034
35.86239680501678 -120.42024952035763 5.956772145006535 0.16850129421851093
35.864219616096925 -120.42477351004875 6.439615792020484 0.42430764539758997
35.86245303701665 -120.42471087662189 7.004100902433188 0.5912366020241367
35.86574927940062 -120.422020085537 7.4242214350092315 0.6970900797339896
35.86606345114435 -120.42049002895384 7.945523545156969 0.8391550831139731
35.86178024138603 -120.42180516053456 8.507755535969737 0.9412590608018212
35.864496584279586 -120.4198556047888 9.061361643592718 1.0685939515701424
35.86404450030235 -120.42005540758743 9.2583929393349 1.1165432588633752
35.86431387396427 -120.42266608235627 10.181987920583417 1.155290287561376
35.864906697092195 -120.42457791567034 10.461946338094068 1.0810679919105874
35.862151386434334 -120.4237502726631 11.122211310861047 0.9691064516494307
35.86266795891968 -120.42302600321659 11.409424436797183 0.8545886821180314
35.86352591335447 -120.42437571802331 11.801267102446166 0.6532409038637139
35.86355867910977 -120.42259814350133 12.526884874755842 0.3721786061162467
35.862637932035476 -120.42374053872621 13.050364663286247 0.10141988747500717
35.86874654739178 -120.42393826071658 5.793799311134206 0.16075787181539428
35.869851109062495 -120.42104270938867 6.571496330542394 0.4270118865273065
35.86867386938647 -120.42407032386885 7.150470927110451 0.5983418021320903
35.86664780121883 -120.42293971526475 7.407985988580811 0.7040374135340658
35.869273766742445 -120.42165305577134 8.231121768510928 0.8460697769091755
35.866749064278835 -120.42113818270654 8.494773094618711 0.9498999200868117
