> GMT_LATLONDEPTH
> out/cube/20240614A/PatchSynth/Synth_AS
35.93087246512071 -120.4923332581292 10.325138607803213 -1.5326075052555546
35.93052244252836 -120.49605242124159 10.916704373949138 -1.6466015058942138
35.93370573174694 -120.49549054716213 11.716225127189462 -1.8285488910306344
35.93355645901771 -120.4935646785406 12.134718922172265 -1.8096173659244787
35.93826877921661 -120.49284545700371 8.240614132229956 -2.7740216150520314
35.93484518393427 -120.49446916444643 8.666763064959945 -2.1620586890112015
35.93518985379945 -120.49371005153724 8.847073276511438 -1.8213414858642931
35.93582913909548 -120.49506762242602 9.630520501323693 -1.675363231211679
35.934879163813434 -120.49308542086338 10.149658806829214 -1.6383403779139178
35.934905389075126 -120.49323877882836 10.46613494244767 -1.688271846254681
35.93674965513486 -120.49258011969631 11.185828395950745 -1.8477274116303408
35.93637061975512 -120.4957278029069 11.343006722058467 -2.204881755928732
35.93741822406969 -120.49392400756304 12.194126883325573 -2.8504129036925963
35.94191518703831 -120.49430697071821 8.13112307963894 -3.8521301112411304
35.94015880552975 -120.49567782897391 8.731681295985792 -2.643852647646084
35.93880670871329 -120.49684654074797 9.10433525255674 -2.347479357132769
35.939463569529835 -120.49196634404443 9.524365403242415 -2.289127199530007
35.93912940766119 -120.49347567718713 9.80139036505238 -2.342624364540887
35.93942877617981 -120.49396399058911 10.365753540172731 -2.482332111886049
35.9415411392405 -120.49515585267967 11.064088833983035 -2.7340081830649914
35.94031915402145 -120.49358063677118 11.488190485949469 -3.224127853967582
35.94201973978416 -120.49497356962695 11.925745308074097 -4.634607793746944
35.94004827095142 -120.4937406815416 12.642362843248144 -1.1914571429119072
35.94527710059613 -120.49526917626241 11.973338289094388 -0.9512394348390817
35.91354587430269 -120.48978944491147 8.650309423070516 -0.9069708618571174
35.91147231806888 -120.48730798839686 8.79198520544086 -0.9838953005148736
35.91175101256177 -120.49049145441106 9.365531557370803 -0.9997447384493804
35.91127269490058 -120.48697894434773 9.978138475000543 -1.00119573641978
35.91300962641095 -120.4895685758123 10.397385078006483 -1.0021537699864185
35.912725608244095 -120.4888180932699 10.97163532604602 -0.9885024943246241
35.91274680733424 -120.4897692434193 11.557024624333657 -0.9128995363790897
35.91844470113823 -120.48985411508318 7.892970090356972 -1.1696503954790864
35.91908796546192 -120.48724553765916 8.589520899054495 -1.4563195236488866
35.91976056531487 -120.48772815523957 8.869810396213742 -1.5226901376410062
35.919671308410734 -120.48931572540825 9.451362039784241 -1.5182358308898725
35.91661616235216 -120.48838463464806 10.051799815684818 -1.512117520717487
35.916750913429205 -120.49083529722762 10.70844745337745 -1.52116785654043
35.91857022018143 -120.49093932183334 11.096916856955211 -1.5285749782567193
35.91705964434395 -120.48685468591312 11.378541830585727 -1.4645783539833694
35.919431130410885 -120.48641336011588 12.155429024788338 -1.1769350623496344
35.92315523801915 -120.48959794953925 8.100088720155977 -1.7461552961350988
35.920979376559565 -120.48960670802626 8.586688573105365 -2.039354637158084
35.92474049774226 -120.48961383040586 9.094348325129964 -2.0233152979096567
35.92304194686598 -120.4884406748197 9.428401931586425 -1.9693723134617624
35.924689500399495 -120.48681074371001 10.191649175860046 -1.9487356729339511
35.92191147901089 -120.48621167274428 10.483785662554768 -1.9728294654045115
35.92329457740633 -120.48723382742799 10.941507038812729 -2.0306786366766953
35.92188595962943 -120.49074556296807 11.45904670233477 -2.051269549873203
35.922464679914846 -120.49107481373613 12.075210627838608 -1.7593261267859435
35.9283310495548 -120.48927620707022 7.331854171690968 -0.9877587447144693
35.92508693758944 -120.48719612825433 7.908762756335712 -2.7092559693547833
35.92545654296847 -120.48777734069071 8.361430309846051 -2.7747475050893344
35.92813860388965 -120.49093218771344 9.13877397672376 -2.5794513147910227
35.926782380811495 -120.48626797557351 9.59493596633459 -2.455987279226234
35.92543034716 -120.48664506742412 9.798878320316504 -2.418370633062637
35.92501455482475 -120.49026850489753 10.620950798274087 -2.4604147430846033
35.92887263701265 -120.48818020080128 11.150061578971016 -2.5891233793717823
35.92918091741623 -120.48757570583659 11.522948693029196 -2.7925032138152623
35.92640901377666 -120.48668513488784 11.985435750210664 -2.73845620435494
35.927431609667465 -120.49118464710688 12.611387363624496 -0.9845863594325529
35.92943915544321 -120.490134425275 7.258507038197182 -1.3996406453606776
35.93196075515861 -120.49139367570939 8.130028207030392 -4.707600917476884
35.930184466283066 -120.48975895286596 8.486563100879556 -3.905836065439775
35.93216026032691 -120.49147062019081 8.859898092553578 -3.4807382389073505
35.931634625696525 -120.49140782402999 9.643192947468878 -3.300248061053277
35.92980565585552 -120.489278423657 10.081135317373754 -3.2518015463725725
35.93162803573273 -120.4879981782822 10.408459599543413 -3.30677815996888
35.931248307667374 -120.4913252271711 11.196358074471151 -3.4944654794460983
35.92960694429156 -120.48908802234138 11.40077418049936 -3.93051363457486
35.930378715720806 -120.48889663584372 11.797545726511958 -4.769259522526907
35.93140985605667 -120.4909759332238 12.56798721746349 -1.3913561189524095
35.93505053977261 -120.48990346077684 7.579720566539934 -2.485314627344331
35.93395989515447 -120.48785842325363 7.751264740409713 -7.91906163594192
35.936986831003296 -120.48958465718727 8.639446677816524 -6.000408617098816
35.935937000991494 -120.49147395783545 8.77222444475671 -5.489572316332847
35.93484789000247 -120.48977466870409 9.484230304955618 -5.30291723470593
35.93409154387801 -120.48812168348931 9.873763528386112 -5.254734648132103
35.936990896855725 -120.49107658094516 10.458982529463565 -5.308939644359803
35.9381670956873 -120.48971290961043 10.977363736878521 -5.501579079343082
35.93582525907389 -120.48700367506383 11.746291671309805 -6.018589909603652
35.93795724541212 -120.4890527394542 11.935165186220614 -7.951761334951421
35.93411819031606 -120.48922506474193 12.681820146403762 -2.2983685605838238
35.93982750751059 -120.4906546142571 7.513602762875666 -1.9050188481323864
35.93880154277832 -120.49111682798032 8.031120983474663 -5.670902763815404
35.942025456950134 -120.4870752905674 8.505711842040757 -4.715381164162625
35.939034019692244 -120.4910633640416 8.839912196134684 -4.347292678992809
35.93923860140471 -120.48767737986579 9.710471053279244 -4.1853782701723725
35.94011880752605 -120.49016812954655 10.065193036102533 -4.124833020233025
35.94139917736334 -120.48704517616427 10.467723431532455 -4.142898087815891
35.93936419427578 -120.49051138855145 10.761403466422088 -4.261787886159681
35.93892338258484 -120.48892209482828 11.260585123811651 -4.58420982143134
35.9405794727322 -120.48803287181376 12.2133564398528 -5.472204137951068
35.942693049055784 -120.49148021836747 12.45797923706162 -1.8289269777241373
35.95563128230305 -120.48631247627557 9.136033271961175 -0.8387832932594556
35.95533799004062 -120.48729001604804 9.607486135288735 -0.8577709598209368
35.95543592611709 -120.49164671484962 10.230219339672374 -0.8611125687495559
35.95297769037799 -120.4881721672245 10.339110052749671 -0.856722338433395
35.954660520269975 -120.48752512047261 10.954311457393871 -0.8366934776115812
35.91176430682004 -120.48147642122156 7.981459308665553 -1.1824812089026058
35.91374551758085 -120.485902551522 8.678081332784288 -1.4592998931872811
35.91228143017551 -120.48161301739549 9.06723153753941 -1.5082307347724353
35.91276812883167 -120.48465958220878 9.634661020486705 -1.4944814871038283
35.91324862058478 -120.4833846697634 10.033339739819473 -1.485985655147629
35.913719235052824 -120.48487126259134 10.636757778811763 -1.497933317760709
35.913839163196926 -120.48559057804769 10.787653563700742 -1.5152022731124755
35.915390185180286 -120.48230416695691 11.72911163370084 -1.469296792096867
35.91283372177384 -120.48482615321626 12.16916722446611 -1.1918714949644464
35.91894507663916 -120.4814960099937 7.353203803831259 -0.8762068678961064
35.920208313682515 -120.4859150618803 7.851254609468553 -1.9824374587032536
35.91710184153724 -120.48611439802823 8.74132050667237 -2.2793891897089082
35.91744366386189 -120.48162555856428 9.22255431647573 -2.24812062287943
35.916036160493746 -120.48561063760638 9.657896535371227 -2.186841993940098
35.915966823002776 -120.48068564507233 9.995281983104928 -2.164297230992019
35.918648179196 -120.48364770383016 10.636267406582766 -2.190328268672354
35.918401148046115 -120.48397079838935 10.833268414919077 -2.255625071910485
35.91799777197872 -120.48530774675433 11.578885457200721 -2.291918663420085
35.91986051820454 -120.48402974714034 12.230956503035868 -1.9971681034408801
35.91866286836664 -120.48374145137431 12.424885134669147 -0.8739456952777566
35.92144476117048 -120.48491312511311 7.286479847444363 -1.1008946029831277
35.92323542276844 -120.48173237416303 8.226644977570592 -3.082651366508265
35.922433091949 -120.48181961457935 8.716511455253258 -3.068937321544663
35.923213757102154 -120.48091077089646 9.129928524615234 -2.835039057257063
35.92170027026241 -120.48469472172283 9.637517245616369 -2.697924016274393
35.921561621973645 -120.48287814188872 9.880894217746993 -2.6563937361200236
35.922546449029724 -120.48251704992639 10.392943164792573 -2.7010298087611693
35.92358282848353 -120.48442515490308 10.830879401199045 -2.842180976368697
35.92341091924998 -120.48235615574636 11.294379171786465 -3.083644582168084
35.92418667480081 -120.4823991117868 12.043323918608714 -3.1119963738064818
35.92084117204731 -120.4811420876601 12.26429710343446 -1.0929345324476971
35.92761666200231 -120.484457819382 7.698262225074073 -1.3274603437529573
35.928868939612954 -120.48115221908202 7.908240713249082 -4.998583061780343
35.92637376446856 -120.48105845804372 8.546903966464221 -3.878806771363578
35.92799722639061 -120.4827604051448 8.907889748250396 -3.3807579425084384
35.92823240836023 -120.48516584989467 9.434446340422287 -3.174907031502702
35.926121257870584 -120.48443188846373 10.161643728963066 -3.1184909843142994
35.92794352708683 -120.48424432231417 10.456550389335607 -3.177390642916638
35.927087985799474 -120.48149032478258 11.070967153230669 -3.3864533364154576
35.92477498967534 -120.48492710735543 11.414076303547779 -3.891797527960093
35.92757112567104 -120.48343883960463 12.201463270099222 -5.051019357399883
35.927519447043714 -120.48429020315736 12.261168329970964 -1.304455651429309
35.93118125497234 -120.4810837731212 7.707183321960605 -1.2505287224471253
35.93334102866287 -120.48592785708212 8.154021657143597 -6.726059668319605
35.9328889612344 -120.48576953809751 8.367099798602277 -4.5530249958619295
35.93335967878012 -120.48121642110044 9.223151510299802 -3.9529313702875974
35.929910429686345 -120.48278459839358 9.28424625424964 -3.732088359283673
35.92987605867509 -120.48349983316716 10.084892163034167 -3.6731259021794425
35.933137423358325 -120.48117925485772 10.292408961191768 -3.7326644586163487
35.931836147627415 -120.4825376487675 11.200256959905973 -3.953980026028179
35.93242499772885 -120.48298631377335 11.587198560189105 -4.554113329936054
35.93118306128221 -120.48313282373434 11.955504609537181 -6.722968545153383
35.933258067353584 -120.4815023049479 12.410338225263336 -1.760909494461927
35.934619467492894 -120.48063657993717 7.431942046078322 -1.6918115748894476
35.93621436783243 -120.48336153911546 8.004422542112115 -5.357994127688224
35.93523128090126 -120.48455375142066 8.268550391401233 -4.464280416510207
35.934798621769374 -120.48358397079488 9.207242788377156 -4.047148728405148
35.93704015096566 -120.48299203558634 9.502676964061948 -3.8733994483072713
35.93680683149445 -120.48297817959437 9.955620403312704 -3.822991736904879
35.93409248055578 -120.48216421534401 10.281246051885553 -3.8672806365805044
35.93751317769245 -120.48496618602677 11.207513263868126 -4.0341950318679904
35.937080933660134 -120.48134802784828 11.31678338244778 -4.440684804379955
35.93679291408149 -120.48274003132398 12.018590338581857 -5.295582352851975
35.93622104043151 -120.48575083412449 12.518460604341428 -1.7033863489965002
35.94222691182266 -120.48555019095106 8.092249237453025 -2.0021016041797637
35.93892640046651 -120.4826592171034 8.35455871318172 -1.9154361772923565
35.939990552458276 -120.48537156234383 9.040317949376497 -1.7229468593675834
35.941413819249014 -120.4845657564622 9.414082583459562 -1.6173616034389777
35.93976857097141 -120.48323268132737 10.117563665416537 -1.5818683106509304
35.939170467129635 -120.48065505280792 10.590984553142555 -1.6068294177531237
35.94014974302668 -120.48558922882249 11.107877568286774 -1.7012567273362855
35.93906166839754 -120.48492669625361 11.325885625462835 -1.8804426050059015
35.93930787851657 -120.48101377632156 12.15183623606868 -1.951619267668971
35.91023087670588 -120.480185438724 8.464791916908402 -0.9275672074143214
35.909615148446925 -120.47760488970675 8.889819969908682 -0.9238925211449712
35.90984917288564 -120.47537168921014 9.544276285519276 -0.892401527543471
35.909823251777546 -120.47932902104272 9.822587743007917 -0.8803750350099165
35.90918929613878 -120.47771878095999 10.377470713292988 -0.8962953833441178
35.90767692888322 -120.48009960859154 11.053730744715688 -0.9318381135917697
35.907954443798694 -120.47539222800329 11.69906854580641 -0.9393351606878446
35.912438272466694 -120.47762540825306 7.294797485747785 -0.8494802905165982
35.91398674471375 -120.48051004028481 8.046070757600074 -2.0295938232166026
35.91400899878541 -120.47620512411923 8.49518102294656 -2.2769698929110214
35.91361579294705 -120.47699955400483 8.824497266133227 -2.2109889729320087
35.912678958801905 -120.47624589377935 9.301936810666225 -2.138881168261872
35.91563103343949 -120.47790172545812 10.247909353865442 -2.1147436667010973
35.91287713506425 -120.47573388134767 10.579173269682444 -2.143607878587358
35.913474380593875 -120.4773198830779 11.031403520643378 -2.221002412257717
35.91300274013023 -120.47633022368132 11.469598412217504 -2.293497495922262
35.91510326208444 -120.47723269143715 12.025992737597761 -2.050109553067812
35.91387439345839 -120.4781147951012 12.661859329204507 -0.8499939211365645
35.91947030850468 -120.47927323107687 7.375873656042195 -1.183806937940752
35.92026002960519 -120.47920442996903 8.134913447802646 -3.4281383993436902
35.91852920318256 -120.48017645449437 8.50980546702855 -3.292396918854159
35.915787331353926 -120.47558702326083 8.88441403202216 -3.01756156724493
35.919735349453845 -120.47637674521376 9.63750852599206 -2.8708365433499607
35.91704283722143 -120.47733548566748 10.055462001624669 -2.8276946458698635
35.918988564921314 -120.47662215273284 10.50178303576753 -2.8740655693513815
35.915879594880636 -120.47745032729766 11.048379932118301 -3.024961260688909
35.91735543216488 -120.47615809741322 11.501011211586935 -3.3078578113121897
35.91745488456657 -120.47544917289795 11.935172894325031 -3.4626062052263116
35.91976440657265 -120.47947439211728 12.7390400535061 -1.1746807849589271
35.921089859189536 -120.4774670828527 7.458126966569673 -1.317184868600315
35.92207451782649 -120.47793007597092 8.136788900279651 -5.365727919903318
35.924264206525606 -120.47651631387197 8.297904086366858 -3.9296206347479044
35.92226487557441 -120.47532110086269 8.852921078530459 -3.382029542606842
35.922011378883035 -120.4762386483364 9.369534819297026 -3.1633846469264757
35.922970322213324 -120.47551157346302 9.897874317720513 -3.1037446694375586
35.92452005780187 -120.4803286048441 10.25150699971573 -3.164822755063784
35.92084712099632 -120.47698259197261 11.011633339236694 -3.3855721299870725
35.92295654932743 -120.4751019190941 11.626994052894794 -3.9390257859426256
35.92184842828952 -120.47562542854786 11.998908563050703 -5.4154222285983815
35.92034452042007 -120.48003401790452 12.497387940642831 -1.28464134309024
35.92580649961229 -120.4756119782778 7.511016904059539 -1.3009924882771422
35.92738146351673 -120.47889813903384 8.05490865513608 -6.2920649604205625
35.9249891606118 -120.47914717852777 8.413301507763498 -4.14109012340087
35.92886389242105 -120.4798154206015 9.014398205356121 -3.5137161889511312
35.925082487461026 -120.47981693897275 9.453937941140659 -3.2781975089517545
35.92856907481482 -120.47975083574373 10.097011745109532 -3.2146696422126566
35.92766366941299 -120.4785271842871 10.273888956667047 -3.2778906836315027
35.926212042925336 -120.47991739883693 10.756550815684527 -3.5128592798552596
35.926160927098515 -120.47795374444904 11.651978054998722 -4.1382495707345415
35.92680349070426 -120.47540143110622 12.106952092251914 -6.269315944031076
35.927642446068866 -120.47533342648921 12.384278873999438 -1.407031494614555
35.931123909536325 -120.4771189622235 7.595065235204337 -1.3423416265701933
35.93203253963458 -120.48024781924215 7.832470307841229 -4.517532423915168
35.93349354427257 -120.48034610470937 8.567101723430158 -3.814113497215318
35.932785166857016 -120.47681542846593 9.245291415098757 -3.3969832256006
35.93035045934074 -120.48053437754001 9.346292517579872 -3.2126352214140423
35.9332841414905 -120.4792098058174 10.104641870360352 -3.1595712299136682
35.931817397702986 -120.48057711768814 10.62761251964742 -3.210016005955823
35.930570177475936 -120.47648512402418 11.156459043784475 -3.390861133731081
35.93115900328328 -120.47559428093012 11.521299305823721 -3.800067150717134
35.93313528102219 -120.47522256808311 12.188457691745405 -4.470547709518234
35.92973541492117 -120.48042669981497 12.60175786603102 -1.3588750008921233
35.93808218881362 -120.47927425409499 7.2785646065276195 -1.07707107503764
35.936267413107416 -120.47527057594975 7.912233354976248 -2.7333892145739247
35.934657172355784 -120.47783051868244 8.69682842497688 -2.8523016395473917
35.934219156946966 -120.48035224029583 9.076804731441229 -2.6922551560827794
35.935393345908025 -120.47628370356128 9.581981372892857 -2.5843281765280546
35.937173587241425 -120.4801134837006 9.794185293590452 -2.548166425687225
35.93758618239331 -120.47542195072226 10.420574642782118 -2.578980887126485
35.93609254121263 -120.47573529650751 11.038918559823129 -2.6808190629072763
35.93425011059604 -120.47773966296478 11.361224384473017 -2.8323728245108946
35.93616607965273 -120.47781448228776 11.836852337475564 -2.7034553520867965
35.93465344854185 -120.47638058491614 12.573778796090382 -1.0775045514274466
35.938691136337034 -120.4766119196615 7.968251830149185 -1.0363982524826785
35.942783453338905 -120.4763106401522 8.276332522165623 -1.1923138745170734
35.939422733212176 -120.47714062527461 8.985140587897428 -1.146659589226684
35.93963481799079 -120.47611909628552 9.715037300069465 -1.093096669062285
35.938468127387935 -120.47924068615731 9.829546396853011 -1.0721386398155415
35.941462133631596 -120.47615534221629 10.300482769610664 -1.0881795220880075
35.93892613366963 -120.47788393765987 10.939862787716628 -1.136506366236848
35.94098261448501 -120.47760794273334 11.534876682650733 -1.1766268663430943
35.94183917149165 -120.48048573678112 12.182704253798228 -1.018756394883669
35.86530946959725 -120.47010834977822 9.65643117900405 -0.807559852010534
35.86343831269193 -120.47288769483052 10.022341379350605 -0.8217853060975274
35.8620080494706 -120.47322277006461 10.58367620008829 -0.8073022030667846
35.86723078409653 -120.47333282176655 9.002506036900922 -0.8315953032861191
35.866828274369766 -120.47429929512955 9.299498438457318 -0.879210428026582
35.86688269954119 -120.47090242527635 9.896480163018092 -0.8952554870561397
35.86642168152884 -120.46978485276885 10.579801090977357 -0.8789288974221007
35.866716335729336 -120.47016585648043 11.113117951266945 -0.8309966288533258
35.872774457134625 -120.47326844861149 8.921073345141494 -0.8509675841912194
35.87221064153578 -120.47058348980379 9.554866784383442 -0.9016938290023844
35.87230567689763 -120.46997010838992 10.132851051618452 -0.918724113174699
35.872797973704195 -120.4738505170196 10.680786732914566 -0.9013696714284427
35.87210186921818 -120.47096134423646 11.068308609858944 -0.8502809304783464
35.87709256419787 -120.46956094111947 8.879903819191709 -0.8114984480651407
35.87947070273212 -120.47417137127002 9.538150456981992 -0.8620793944041855
35.87901602310935 -120.47148199925786 10.143617330884313 -0.8789722973349569
35.87878045504579 -120.47084167414958 10.552585958343297 -0.8617134011258006
35.87925381009103 -120.46993090508123 11.236174320021298 -0.8107294609942824
35.9090184098196 -120.47407722503385 8.172053306522033 -1.3467897371780453
35.90716965956578 -120.47030281199552 8.3260021068614 -1.4191110940849174
35.908356871594464 -120.47210312027075 9.226449109044786 -1.3031914486854799
35.90886356141371 -120.47405315497086 9.42433291965175 -1.2254288863191267
35.90910264937683 -120.47002906920467 10.049606913962947 -1.202698106240829
35.907816023946104 -120.47257400891729 10.435232491331126 -1.232623290577548
35.908850949537474 -120.46980542346509 11.124038623595858 -1.3181103028498162
35.91027555135451 -120.472741459432 11.373334921815504 -1.443070550138364
35.911089213862255 -120.47412229633936 11.866854412990861 -1.3778316535292554
35.91370025571663 -120.47331929856789 7.648127806788191 -1.3150362737562076
35.91375718865026 -120.4720142417185 7.795315066938592 -3.8549254896600957
35.91279573314966 -120.47081314437298 8.721451454313312 -3.5777987324672726
35.91157143829188 -120.47180686399317 8.751738111108462 -3.278328944254655
35.91189485670038 -120.47459306810322 9.30308557553435 -3.1338244979908807
35.914149956421625 -120.47092470271572 10.191302708481397 -3.093714213333576
35.91430510022992 -120.47300983164097 10.321098435880142 -3.139955722043485
35.912001044289504 -120.4716676700923 10.945577774558748 -3.2914188110887017
35.914527536573914 -120.47303176137916 11.669976909418354 -3.60157854616959
35.91420977766643 -120.4729051758915 12.098385246240072 -3.903650841094409
35.91527644523873 -120.4732341826399 12.645379891544962 -1.3114825914892172
35.91630237650665 -120.47192044039957 7.635409995654592 -1.486917236873606
35.91809149268813 -120.47268367939098 8.091478910857123 -5.960187142530077
35.917544164883246 -120.46969116203682 8.295040422892592 -4.2673146621786
35.91773630709279 -120.46977090640856 8.907098688735939 -3.708190581250469
35.91682357413395 -120.47081955452337 9.448461830220694 -3.493546344971549
35.91794281600252 -120.47076618344093 9.95628388907718 -3.4356787982583654
35.91895196725721 -120.4714506469435 10.404046530923392 -3.4948655778498656
35.91855785164859 -120.46993222033673 11.044200511676634 -3.7113535406308102
35.917033047616165 -120.47325592222619 11.365401209862469 -4.275339837449995
35.91954328011361 -120.47380722696526 12.145332219499252 -6.005445289177089
35.91780717382687 -120.47195368937454 12.62319803517619 -1.4422847942036685
35.923961744234774 -120.47119686565507 7.321043614235778 -1.3130356093996214
35.924760007288576 -120.47015324866277 8.147601170960888 -6.051743317798313
35.922273746796186 -120.47139377840928 8.326491732996269 -4.097989250893476
35.92381773518545 -120.47496058643515 9.158124369810329 -3.491203919398316
35.923027567530866 -120.47114034730531 9.350885016247112 -3.2597101091051988
35.92287459111796 -120.47041222471033 9.792150565196385 -3.1966296867018986
35.92254769901766 -120.47058819713065 10.297783718792806 -3.258578680287722
35.921068654551625 -120.47315776171183 11.244976693309356 -3.488566231738036
35.92033653118472 -120.47037916782013 11.638049341593819 -4.091501674170561
35.923841188098294 -120.4742188625949 11.860246067437371 -6.013365918987503
35.92074729344264 -120.47046583952338 12.326597778432209 -1.3708752643072248
35.927201789696724 -120.47022587087334 7.607589320687969 -1.2007468856419048
35.928533651579954 -120.47413174661894 7.8743865127613075 -3.994669165704504
35.92878485897647 -120.47394839831361 8.393118740841768 -3.5080893722998523
35.92791404413933 -120.47117001930854 9.139398867487117 -3.1270914373081684
35.92876722791988 -120.4729668435007 9.435348619460637 -2.9470519936660056
35.92814608513762 -120.47127009935656 9.909763061175152 -2.8941021567444016
35.92662718159635 -120.47290412453863 10.390176095974525 -2.9446351634163777
35.928441558339465 -120.47295374516001 11.209889072818328 -3.121307674214067
35.924850293015076 -120.47167027197683 11.522125624080958 -3.494493437095005
35.92610194862767 -120.47439472380886 12.215172950708828 -3.953518274796398
35.92798223161855 -120.47071422380826 12.51305349412449 -1.2150800605558612
35.93131801929114 -120.47418210882738 7.670143904476142 -1.0311303357796124
35.93217059263936 -120.47352493177398 8.001801115064538 -2.543932278980036
35.93127280374214 -120.47040988994102 8.393833981413694 -2.7435563900508835
35.93167635366741 -120.47371847681359 8.96400068948124 -2.619988026594364
35.931614865984876 -120.47378598395827 9.639649198742717 -2.5199928026545493
35.932577616927276 -120.47071631379407 10.078625585197456 -2.4853309416029417
35.93042370092538 -120.47065020492924 10.43667784671545 -2.5165633238030267
35.93360161847016 -120.47264126893054 10.84554064723282 -2.6123614278870715
35.93338956332412 -120.47150875325426 11.670542799265833 -2.7294875606332383
35.93073603668749 -120.47333616354416 11.87420064736603 -2.523141030878864
35.931781508328505 -120.47261565369442 12.705238955657657 -1.0357683488464864
35.93826617069486 -120.47491274579015 8.196706432617184 -1.5394422852891738
35.93778285990865 -120.47282133814909 8.564750463627268 -1.8289382586898637
35.93403318511878 -120.4748357503623 8.821897377588241 -1.8393796504365754
35.9365413840551 -120.47017171308228 9.430978852311842 -1.8005549475648808
35.93489729192033 -120.47140936731921 9.771375433316713 -1.7822026502082269
35.935954405692975 -120.47360948243225 10.414001361046466 -1.7966230280235627
35.93625548250387 -120.47363717181781 10.888860609039716 -1.8312482240757706
35.93394889433402 -120.47427990835874 11.446415433773186 -1.8165619743440535
35.93641190527224 -120.46984496131167 12.235961236202035 -1.5266752145035904
35.9415888681949 -120.47273498959343 9.148018793576307 -0.8261701023353395
35.93863497788577 -120.47012466207384 9.653967417716016 -0.8126513967718617
35.94022964574091 -120.46975079884557 9.821620221593335 -0.8035910121122207
35.93920966280672 -120.47318242342537 10.389669203826937 -0.8096476219348872
35.94168185161193 -120.47320997063005 10.85156994928862 -0.8201946492790446
35.86276510179734 -120.46453873968052 9.139125925452145 -0.8713566274747325
35.866182254341346 -120.46625698631415 9.42147397147083 -0.9222265407062783
35.865118316205745 -120.46867567368813 10.162038339267294 -0.93930349520084
35.86325433527918 -120.46771847218666 10.6508945550787 -0.9219598717993737
35.86395093506209 -120.46611603225631 10.788985800328458 -0.8707722897105574
35.869032716799055 -120.4686033913519 8.746391471130647 -0.879300403790826
35.86924944182086 -120.46583107609734 8.79761812200226 -0.9748552551450087
35.866274785794445 -120.46633943157521 9.559697986053171 -1.0334822433643862
35.86862118980887 -120.46423372042501 10.24563399755446 -1.05305816221893
35.868960052846646 -120.46586527749407 10.656392904002416 -1.0331904973109636
35.870155906631034 -120.46734346826086 10.838191239856506 -0.9742059300177545
35.867368741190354 -120.46789709769082 11.491335021215406 -0.8781890898232652
35.87266740091427 -120.4655320250879 8.293545233603137 -0.9127934914079195
35.87362597706119 -120.46426654640625 8.77318294158452 -1.016311321854904
35.875107546262356 -120.46834086513813 9.746197427582267 -1.0792300261781513
35.87190568168447 -120.46568929006125 10.02317303254849 -1.1000922379262297
35.87321028827414 -120.46811236972754 10.662437379348631 -1.0788455469564888
35.870899683516754 -120.46768714664044 10.987946804692019 -1.015476252704098
35.8713871826242 -120.46628203489342 11.67251355234702 -0.9114039235433254
35.87736328260532 -120.46685627654895 8.723276917472194 -0.8684137170635079
35.87525871847451 -120.46570596426928 9.113909795422487 -0.9719180874169406
35.87524983174254 -120.46733549808961 9.468576369396343 -1.034166146543871
35.87966083889119 -120.46722164437918 10.02075712925891 -1.0546181761258935
35.877491966014965 -120.46579577859868 10.42487648916213 -1.0336279466298255
35.877204549613175 -120.46684198086673 11.080956030077425 -0.9707916231862688
35.876987543459705 -120.46413543379504 11.566708618736426 -0.8666247933933575
35.8828865835731 -120.46588112771339 8.95325699871474 -0.8571414168916627
35.88337561672296 -120.46523713349626 9.663765554673002 -0.9141827592559657
35.88005298229931 -120.46590881001501 10.162007334491259 -0.9326575372231408
35.88110321237956 -120.46416524239626 10.641343568894023 -0.9135382761896741
35.88396484551903 -120.46703478749079 10.770805981360507 -0.8558193229776799
35.91042375391859 -120.46391661574522 7.610134797554209 -0.8924487520947605
35.91061056753751 -120.46754617275225 8.060491110786089 -3.1670015823005846
35.909250030426215 -120.46826023928307 8.613820037377288 -2.704409573611116
35.907525593855674 -120.46865425886585 9.170633037108157 -2.4260393503144004
35.909642999910425 -120.4658212309224 9.397845096659006 -2.306638122807946
35.91096127952686 -120.46541953139446 9.946107279207677 -2.279479708251181
35.90929498002323 -120.46476368916082 10.500312617845381 -2.3273884444151287
35.91048732029525 -120.46726766190704 11.235302560970275 -2.468189138302561
35.90990548340935 -120.46571432049541 11.614562482316858 -2.770798938637471
35.9085127911658 -120.46942263141071 11.804060065670598 -3.2710182853016287
35.90713123273788 -120.46511659500302 12.402885360360452 -0.9261844780948542
35.91502247890542 -120.46760041596431 7.674779027867582 -2.1146569756600107
35.91499854899567 -120.46462015507018 7.780737368359073 -7.197446706765583
35.91143305619176 -120.46486288224457 8.512989419782933 -5.421839122796766
35.91294841772014 -120.46509564165514 8.783974027999205 -4.91085009127851
35.91424802947496 -120.46506468006044 9.5518805453682 -4.720056903165278
35.91554081467866 -120.46397850752946 10.143177070227054 -4.6692675065884615
35.91434633326456 -120.46557641484932 10.747405396815491 -4.722889248317842
35.91189789386214 -120.46552118838909 11.223396319310995 -4.916882128944344
35.91401749373434 -120.46716378440651 11.553043004113558 -5.433100677910305
35.91238306328004 -120.4669609174235 12.10696379786171 -7.238614581816576
35.91246050000403 -120.46563576321512 12.340122337359476 -2.049435143923432
35.92018888738317 -120.46804569226384 7.326959045137303 -1.5020981125511104
35.91846601444296 -120.46758700581252 7.904642931528309 -5.992524254365091
35.91949687411313 -120.46488238665883 8.669826414511927 -4.367387698043809
35.91993897238531 -120.46791259759661 8.857266867375026 -3.82161993700503
35.91648144250126 -120.46492417016019 9.48634295987518 -3.6093793915105574
35.9160825717056 -120.46505564341409 10.109107865782637 -3.5501384881322706
35.91929070399893 -120.46881640651333 10.511442812426036 -3.6055869493187624
35.91599241728634 -120.46642184809929 11.21706907383803 -3.813615044340895
35.917010516892795 -120.46895750429299 11.460831071529824 -4.352376050593413
35.91960947310447 -120.46703813517938 12.206520568317458 -5.938229159274755
35.92004721339644 -120.46391863843674 12.617556496206728 -1.5353877357016115
35.922425003265595 -120.46888729095754 7.683899483892525 -1.134096669395939
35.92072779397031 -120.46804711732831 8.141385707292851 -3.6011969440150127
35.92295259050671 -120.46795145523642 8.637375882033558 -3.31077909877505
35.92373727087088 -120.46737662084944 8.960578805826172 -2.9809053599333097
35.92168614482751 -120.46897528249598 9.678863761820798 -2.814256870342694
35.9215431422383 -120.46399911646158 9.835908774761375 -2.763745701325581
35.92338871620528 -120.46466870632739 10.3919660928028 -2.810527565602784
35.92034024498509 -120.46943297214182 10.896465609467162 -2.9725492114448726
35.924470830720274 -120.46666475904293 11.635052699575827 -3.2937989442760927
35.92402732991931 -120.46792152996892 11.858311471936032 -3.5615898409280615
35.922940389073446 -120.4660947072938 12.388789643195695 -1.1430270667333073
35.92812216986834 -120.46466735963722 7.497693721677152 -0.919779784951113
35.92682833354121 -120.46878659227674 7.87792082539497 -2.258613377001078
35.92555343606184 -120.46519520199337 8.408508360671046 -2.4947630267259826
35.925463254288054 -120.46454505473739 9.123930226781386 -2.399546847677616
35.929071816347864 -120.46645120822878 9.509752579151408 -2.3087366984809745
35.92733797704173 -120.46594439008967 10.147096463963711 -2.276004470005518
35.92905381323737 -120.46707260620282 10.515783501960573 -2.305360044298783
35.92691372665954 -120.46515959696364 11.093916797897961 -2.392098599647156
35.927691817981184 -120.46640453670126 11.528478106028786 -2.4814609560120133
35.92921631407422 -120.46537360936843 12.07599958276774 -2.240660075315613
35.925601758551295 -120.46518086272609 12.706983227012294 -0.9236771688089493
35.93212655388069 -120.46429989674635 7.82437136304251 -1.5044360109662454
35.932810014690034 -120.46550321639273 8.62701431606007 -1.81765129377787
35.9319257212496 -120.46658655074864 8.924864754424208 -1.8540047340083425
35.93089059781874 -120.46503331601994 9.489399461146512 -1.826498094710489
35.93047831535328 -120.46839102676013 9.80993732950844 -1.811109582389706
35.93066470867327 -120.46923781946293 10.347314949156127 -1.8233336455533213
35.92963159653772 -120.4686819044227 10.956214882906462 -1.8474591149618993
35.93101716374727 -120.46638377257065 11.33920873651917 -1.807834225588582
35.93122674523498 -120.46647488010109 11.847256941751864 -1.495009742957947
35.93412214767586 -120.4655139013662 8.117154742351321 -0.9178493845845223
35.93751267745049 -120.46946105908431 8.624779352260203 -1.1609132299828495
35.93443087204653 -120.46870656309282 8.914608147551409 -1.2316689843157302
35.93786396852726 -120.46879318105944 9.312901598868429 -1.2358358677709524
35.93427368141917 -120.46661731491449 10.234345336743859 -1.231150107414033
35.93776254064874 -120.46846210554541 10.623632125189001 -1.2330409136120288
35.937948505568826 -120.46942337370758 11.207823236916221 -1.226203669320353
35.93603168445629 -120.46574879263609 11.671342532545939 -1.153598978274409
35.93759383933005 -120.46816829287671 12.146818654023209 -0.911591035390413
35.859614334697476 -120.46282576584863 9.51644779605961 -0.8337257505643908
35.85988181362557 -120.4587080727111 9.832256209823377 -0.8495173786309382
35.85783328660291 -120.46339606581473 10.68968136958224 -0.8334448944245912
35.86293758157237 -120.46110083489128 8.708878380750807 -0.8628140576353079
35.86521483397446 -120.4588747553865 9.246634932229322 -0.9596690003540194
35.86459803550894 -120.46177923578173 9.371367114497309 -1.0183594666929263
35.86431914909615 -120.45903288662325 10.13924443286781 -1.0378229778207748
35.86560459417541 -120.46318458549636 10.52956913793634 -1.0181222721216363
35.8660125645056 -120.46066671812241 11.04120612398103 -0.9591086879607928
35.863245684194325 -120.4591589609833 11.296471313710374 -0.861786756316829
35.86632513579119 -120.46135806277127 7.761244147285118 -0.8410398419586457
35.86688873356168 -120.45996976528953 8.693627426654036 -0.998492726454282
35.86946694965255 -120.45966329660641 9.208798474249605 -1.1140844612101777
35.86901131884506 -120.46336480204089 9.374276755915277 -1.1828601796143334
35.870436682210595 -120.45905454545765 10.22480007893642 -1.2054276464864293
35.86743271098857 -120.46146069339346 10.551487667567542 -1.1826344921662817
35.86989522009761 -120.46356468076328 10.836033208581778 -1.1135187542445981
35.86971984450914 -120.46158631356097 11.28394697569249 -0.9973856287498085
35.86745310333855 -120.46201350814906 12.205408715784426 -0.8391901552042127
35.87084055642119 -120.46032964714188 7.861746720921237 -0.8815155942928263
35.87386333942041 -120.4597438030849 8.25749707027791 -1.0563954260605626
35.87250209314239 -120.46291224765014 8.830950948038584 -1.1824582101149972
35.8709048351146 -120.46305820976718 9.725894306602358 -1.2560704655129427
35.87493065888592 -120.45876250424844 10.245129968783878 -1.2799051616316757
35.87245766061942 -120.46236001344278 10.604704567245406 -1.2556964021329535
35.87339772415968 -120.459470593817 11.118006743101402 -1.1815991854444234
35.87084152009093 -120.46361095468774 11.646852231914831 -1.0548515265920277
35.872975535252046 -120.4631890238329 12.057604001805771 -0.8790896215542012
35.87610629394187 -120.45894396971624 7.930377530785754 -0.8078015571359524
35.879588310159654 -120.46133008796971 8.45344204649521 -0.9796738048871487
35.87551419041414 -120.46384826948166 9.105586308219412 -1.1016744885558687
35.87605311524276 -120.46054085295127 9.368932243838877 -1.1717130201233927
35.87638002697981 -120.45863424285028 9.920517227923593 -1.194021744479972
35.87579581936426 -120.45881343423684 10.70895288721701 -1.170955441124508
35.87876371714134 -120.45966440200823 10.980827734222007 -1.100098551442398
35.87776238301359 -120.46359170730555 11.51878762288475 -0.9771768301407229
35.879264294745944 -120.46221655843485 11.761798055940604 -0.804318966767217
35.88256815076247 -120.46029789089793 9.127074849971248 -0.8854504785014806
35.883638112284046 -120.46255344982032 9.314170353177971 -0.9441756036222618
35.880298127715506 -120.46367128789268 10.11191784600597 -0.9624292808447517
35.88383610979211 -120.46246418717496 10.349288416062947 -0.9429654279041572
35.88152087506115 -120.46149361096467 11.189848716916346 -0.8830411435125909
35.898302451602675 -120.45965804037068 7.9162633390232635 -0.8815683233461963
35.9007000442821 -120.45974377664291 8.441092921517727 -1.0169100209073758
35.899319961427324 -120.46073884115822 9.214247385822336 -0.9884402323027042
35.89937269939831 -120.45836315448658 9.337710758892277 -0.9507378730145548
35.90029840579921 -120.46349298142641 9.991589101205896 -0.9366140220506829
35.90009615864774 -120.45976834569714 10.455192822145062 -0.9510470429297739
35.90072005611695 -120.4595415796358 11.204147901656064 -0.9894502248420699
35.899684107626506 -120.46319338923881 11.555896785336364 -1.0195236900673161
35.901339921453044 -120.46177786887635 11.779081807092204 -0.8855198292731673
35.903082438149944 -120.460688836403 11.764245897873618 -0.8485166470985572
35.90802024347433 -120.46297958698229 7.378784080599914 -6.19419623373199
35.90758136755731 -120.46145705779435 8.182576837078138 -14.784943868626577
35.90818751747434 -120.46072362732252 8.68777309366139 -13.43662748121384
35.90714429432777 -120.4621250218972 9.189224312093547 -13.074587557522012
35.91097249067296 -120.46172763637624 9.491193420092511 -12.9560313941833
35.90900280599743 -120.4587706430851 9.958725101203777 -12.950930347943709
35.91038418622253 -120.45923149545891 10.736980475052532 -13.033403874919747
35.90709536465156 -120.46307003394817 10.840539631226639 -13.229533737917796
35.909792737863526 -120.461284161677 11.63818004169438 -13.670460380827475
35.907030357061636 -120.4592121212266 11.91814703761223 -15.110090811260232
35.90828315391118 -120.45898486467189 12.321935107259058 -6.2355630661307515
35.91297714240192 -120.46357795971691 7.471431379534014 -1.6688595910073454
35.91269288809354 -120.46191329500957 8.116327445042415 -5.765816154025698
35.91429627026659 -120.45891796172992 8.527471719000582 -4.535340542783746
35.91562526181756 -120.46372397704309 8.776215461959891 -4.075319232181808
35.91288277338823 -120.46348416307295 9.346259396091076 -3.8857342187221104
35.91228735427974 -120.45958006314464 9.88394700823572 -3.825747019600868
35.9121468078035 -120.46085384572486 10.61507714134341 -3.8650657168949683
35.91196456731469 -120.46248383098677 10.994194441211048 -4.0336144717930935
35.913789040133395 -120.45956630582067 11.395203706149394 -4.4702235170187015
35.914549593790255 -120.46234462210889 12.217217693444308 -5.6506455944086005
35.91250024589436 -120.45840619013083 12.456056515735101 -1.6502181509851366
35.919790120162055 -120.45984379269504 7.701557002090296 -0.8698666519728028
35.919731734103756 -120.45949030788822 8.15850475079713 -2.8932663243835606
35.9187987700333 -120.46150570320083 8.295942994814135 -2.705432244139827
35.918605082402735 -120.4585284270038 8.945431046493288 -2.4194358269291385
35.91608962907084 -120.46317552797193 9.708199585287122 -2.269171044054218
35.91603129179306 -120.46053510450496 10.127647876430567 -2.2218815248683255
35.916729511339 -120.45895868736596 10.61586548060581 -2.2620586691293796
35.91793640836511 -120.46182338755621 11.173464995294557 -2.404443521957813
35.91951547162559 -120.46153786769204 11.478946667172652 -2.6793859960785613
35.91966224057642 -120.45835203939374 11.958300644503698 -2.8481072656446047
35.91728008572101 -120.46211608190352 12.605960970685931 -0.8678566218324605
35.92283569179291 -120.45968303006408 7.857973840701031 -1.775675820556913
35.923411397869245 -120.46097957638165 8.269027047956818 -1.9864165077524507
35.922521479376805 -120.46081562464057 9.201837979438778 -1.8999707800057037
35.92176061066837 -120.46138114420849 9.530830201879857 -1.815142186682881
35.920723840952995 -120.46255705601891 9.812429650680423 -1.784117613463824
35.92137056840538 -120.46197040541392 10.320917314007044 -1.811186920243151
35.92437139428298 -120.46329116745918 11.012002267872086 -1.8914696485205618
35.922984126350265 -120.45841689267324 11.600135303502393 -1.97209760709909
35.923121017143 -120.45929054917633 12.174037938345979 -1.7579372654488683
35.92489447126956 -120.45836958953943 8.234099268264488 -1.2347312303166806
35.924843164414376 -120.46160734154249 8.724240723510079 -1.5126236451982524
35.92864737573669 -120.46071155239626 8.796894801964678 -1.546826286264563
35.926476784232854 -120.46026911008062 9.601286808734901 -1.5215983797139137
35.92479508039149 -120.459580699113 9.836445219415044 -1.5072775804825524
35.92811299316053 -120.46315890776216 10.654501982073759 -1.5187369278032603
35.92743376181104 -120.46121363070851 10.928902527183753 -1.5409279660885753
35.929108003595786 -120.4627826401858 11.529862618366922 -1.5039230719874812
35.92714266957361 -120.46101756971632 12.193584886179336 -1.2267045074408411
35.9313181366783 -120.458588703192 7.792602836217259 -0.8667039559657675
35.933695857975536 -120.46312924970633 8.529388439133582 -1.1061478057066882
35.93287704724415 -120.45897320284526 9.033136728283464 -1.1845449786482396
35.930609235872716 -120.46011925937283 9.335286408789996 -1.1948806924287567
35.93357413615927 -120.46354375368091 10.083637491205668 -1.1923758210635775
35.931872895644545 -120.46234975767516 10.34753336933192 -1.1925836271818524
35.92977526650427 -120.45960600267101 10.911932363553376 -1.1800883839846537
35.93250597118852 -120.46122305632544 11.315625980711097 -1.1003303657551016
35.932211877018005 -120.46195839307111 11.761538747716449 -0.8621082515301847
35.861469868772986 -120.4544604813327 9.25409796730881 -0.8441012428748165
35.85937105751943 -120.45391415220885 10.21519132025252 -0.8606603716706993
35.85797342961594 -120.45684911278228 10.338876456421735 -0.8438108005192553
35.86206918729682 -120.45731158860913 8.663556530391173 -0.904994632817755
35.86304313829771 -120.45391291062893 9.101433578939503 -1.0135305652347872
35.862297089481984 -120.45338141695653 9.485155433761221 -1.0768321994576013
35.86344756512711 -120.45368295507605 9.834420491046561 -1.0973604011799176
35.86547775573625 -120.45360447060152 10.630009998150395 -1.0766633250668034
35.86287404354211 -120.45487960477767 10.993022438597155 -1.0130663319958793
35.865515204335246 -120.45737305584132 11.280236535851255 -0.904000838309215
35.869297686637346 -120.45371872931538 8.02164763885997 -0.9178732364726198
35.86948131283434 -120.45799925557213 8.483034312694354 -1.1110573457728483
35.86631713203857 -120.45471575274541 9.119580537817958 -1.2448598198867633
35.86716601156411 -120.45605536826424 9.45970753424132 -1.3200220666923046
35.867505629437 -120.45664029420469 10.08627252643415 -1.3438985315270535
35.86851280531667 -120.45322703036366 10.73894111286548 -1.3199978895954303
35.86977440346955 -120.45331910335962 10.761199146914654 -1.2446345252084667
35.8695768570965 -120.45407118924535 11.63950938209203 -1.1102707750985583
35.86659464077021 -120.45636122520926 12.105972564044665 -0.9160808414277954
35.87224817002048 -120.4560015435373 8.00068389964291 -1.002204048522948
35.87384811886893 -120.45814970748222 8.252672746538748 -1.2244093069914486
35.8713264050902 -120.45795101881784 9.082307404389896 -1.3720354208542507
35.87435507536327 -120.45666980786092 9.284542934606751 -1.451630717894987
35.87324998849477 -120.45385392216637 10.126405810311201 -1.4762505807937831
35.8727499425399 -120.45611191046777 10.449815773334944 -1.4514787927214856
35.875000936327986 -120.45368252050832 10.934800720768145 -1.3715599558889735
35.871378197864 -120.45432065141482 11.643950652044602 -1.223226429343886
35.871124254967945 -120.45565170129862 11.807594939717374 -0.9997930256547017
35.87910538401792 -120.45482072752685 8.154747459988572 -0.8828136101611994
35.876206487847845 -120.45517468729679 8.640851979152242 -1.0937106620880845
35.87813932191867 -120.45806347959532 9.128804901012758 -1.2290133935687473
35.8753741137475 -120.45616478992083 9.258052601511787 -1.2992816788391364
35.87680393668269 -120.4546012795317 9.834628601992287 -1.3202608472289332
35.87531708144894 -120.45458823717786 10.468922481065048 -1.298373567109964
35.87743002389107 -120.45820376203636 11.151157907882613 -1.2271308658807973
35.877630270925515 -120.45306186594834 11.3089009121234 -1.0906819051480023
35.878358505585666 -120.45458832226036 12.001858465901073 -0.8784113820458815
35.88313648618123 -120.45313646921767 9.346764558635893 -0.8342826431125034
35.881241100915645 -120.4532104694392 10.136016073984559 -0.8477045853236197
35.88364669472574 -120.4547340468841 10.670606078961617 -0.8322788320174699
35.91040090657754 -120.4535850438124 7.270304879987042 -2.982225653175455
35.90909073987284 -120.4534015390624 7.921501161478107 -7.599528060171903
35.90711112736869 -120.45381069235138 8.624711481100684 -6.956375897058799
35.908873276874274 -120.45500347444923 9.039666960278641 -6.621466963319499
35.910129402864776 -120.45749388005639 9.679229369819991 -6.464585772379181
35.91112271881836 -120.45780351768565 9.930767647152555 -6.407652888287096
35.91109887092196 -120.45507364912596 10.55392894468647 -6.431571703549334
35.91044988049184 -120.45772712781117 11.221662899421682 -6.555050254991099
35.90994577992303 -120.45281005989845 11.291647574759716 -6.854341168070476
35.90948620332951 -120.45541737480119 12.012738473520743 -7.442839666506765
35.910907124360115 -120.45324214020899 12.580481624389906 -2.930285771577424
35.91508994056308 -120.45284560760803 8.102221596127944 -1.2960465895261877
35.91453312794851 -120.4533422125488 8.670130837491977 -1.152126366516456
35.912263191682534 -120.45477246162625 9.240665969265038 -0.9389571260964522
35.91184087208866 -120.45441418022824 9.646326975286582 -0.823689562655714
35.91273634333087 -120.4528433720749 10.481425937702014 -0.8262842689376738
35.91275336152197 -120.45453308561764 10.92615728344184 -0.9434596599350878
35.912481972052284 -120.45645384067768 11.491709184202435 -1.15585734825726
35.91302931490833 -120.4577030877653 12.096674197810103 -1.2921748112791316
35.91671428850356 -120.45799819809325 8.016594884119444 -0.9263547426386635
35.919852916555115 -120.45315916159542 8.502908894359901 -1.0450696754215112
35.91926435272492 -120.4547263540896 9.155498263595746 -0.9652378193407213
35.91851925765782 -120.45678443110891 9.699798257626794 -0.8941484437439793
35.918748516549115 -120.4569733271955 9.904206928024843 -0.8690907920037778
35.920121955197445 -120.45754592937689 10.521507746520324 -0.8931964288299173
