> GMT_LATLONDEPTH
> out/cube/20240614A/PatchSynth/Synth_AS
36.06228126069472 -120.61936156696937 6.199273899794391 1.0374294287129302
36.001040138774364 -120.57164279273177 0.8270501563859696 1.09316146940343
36.004707023416856 -120.57059900026609 0.9221779237867038 1.2523531269621206
36.005878286533566 -120.57304030026394 0.7630788129331978 1.5542322081997662
36.01703208444132 -120.57337782443318 0.8820681537359507 1.4190399642293745
35.993872625320236 -120.56888263872487 1.2496439071075907 1.2463332793138617
35.999103499532026 -120.56882455826589 1.2196785247345483 2.473990871673341
35.999602139245184 -120.56600091621712 1.4948457522128176 1.05137641241778
36.00159120597956 -120.56610017353759 1.0173109583763338 2.4755971876011196
36.00959195497718 -120.56577470188385 1.0266059094125692 1.717955603183872
35.990255058673974 -120.56334828668999 1.214218525354493 1.0069425645862928
35.993099985069406 -120.56256277095507 1.1317383706581827 2.593685933813512
35.99971388450322 -120.55981029517248 1.163019652722831 4.054347849306827
36.0005005816408 -120.5608696825073 1.703768473069557 0.9984808511826201
36.00335038735081 -120.56398850307438 1.2035539380472624 1.0735713769326445
36.010284358007425 -120.5627308594125 0.8471123437841594 1.2260268734485749
35.979998264634524 -120.55523175920945 1.0537254920904882 0.9114644819345022
35.98565533276206 -120.55710008021863 0.8171413458265887 1.8844365795382554
35.98983258014372 -120.55394957684868 0.8584481789187393 1.3594110486981432
35.99494692877752 -120.55379828084317 0.6072668043461933 5.220964836254007
35.996128337655534 -120.55450598116742 1.1627490539939882 4.547530417800547
35.996893792578845 -120.55398914364675 1.18043564342794 4.511357938756932
35.99848769502085 -120.55290324106183 1.6165722907939049 1.1341190052203654
36.00206889545019 -120.55414383503341 0.8725065299029597 2.738437895392539
36.00817009834391 -120.55465919460383 1.0794320798868 0.9106558152733574
35.97680884942693 -120.5478327360642 0.9967274502957761 1.0078891279988664
35.981513547835625 -120.547606690272 1.0538674940785686 2.16683554221492
35.98342178142424 -120.55226609601549 0.454500668476603 3.971785682739932
35.98450877235968 -120.5474616440932 1.1460881487224355 3.9047953406489837
35.98517741582522 -120.55042195686553 1.5102829570991148 1.8045972579982583
35.98911552775827 -120.54927847623242 0.3332534863562078 2.550971433995652
35.991231942808454 -120.54751810936806 1.1780468186924242 1.8919455096774282
35.994039455808014 -120.5479885398246 1.157433535960753 4.792865031887376
35.99440399519392 -120.5492256258514 1.5091315178534677 0.8158755888848208
35.99966706604648 -120.55067865103608 1.1073290732500802 2.5683691235717934
36.00428689760996 -120.54881002451776 1.0814280446941937 1.1501238066055586
35.97346825279837 -120.54193187355754 1.1407794144433214 1.0361401265197214
35.97641493383634 -120.54307548240259 0.45420389478985135 2.6460329973299497
35.97697168810171 -120.54589660705184 1.0317198905151705 2.254786913649467
35.980154096816925 -120.54467912576695 0.5939277448514432 3.3741922692035895
35.98103938096231 -120.54329015008872 0.9082766826661891 3.0316392309133438
35.98577578018906 -120.54328821888502 0.2750108654388424 4.066731486950795
35.98364537482803 -120.54484117793004 0.9816514318735241 4.186208621093977
35.98497582467923 -120.54722003867569 1.7396774265748287 1.6007036717744763
35.991129658737684 -120.54574441778495 0.9426222384785989 1.0992165492385655
35.9954920998996 -120.54387726635827 0.9049457990749639 2.4266257260344664
35.99879716841386 -120.54245476383049 1.1245771712907193 1.29194386284945
35.961409770243996 -120.53781561085871 0.43201920755504675 1.1842265948706492
35.96689375513247 -120.53947137604077 0.39080703067436756 1.6859891444915442
35.96741411535288 -120.53884317767029 0.957948142177546 1.2196197717213462
35.97261605039958 -120.54074149870945 0.36756545428921106 2.368773019118662
35.971530028580155 -120.54102216288913 0.8170179711045645 2.034396893142863
35.9746389638495 -120.53937490670401 0.5549249669127668 3.9467621013002305
35.975135283916856 -120.53762297197919 1.023066808087181 3.9351481742716232
35.97559749733583 -120.53857896186435 1.3645019875941142 1.3762390642153046
35.98128584118834 -120.53808304016766 0.3409028511649664 3.5881860152549896
35.982579845830536 -120.53842635475829 0.7568426497814347 2.679579430175126
35.98572769963627 -120.53889130986414 0.5517945365606377 3.972532933840781
35.986637150676515 -120.54044583992702 0.7813538393501853 3.532573837232612
35.984222092490604 -120.53907469032387 1.735500770376957 1.4686934727648604
35.99066634837136 -120.54130938896007 0.9459380493791045 1.7744461268421232
35.99548824704298 -120.5378778769134 1.1168116763319196 1.6382540351425898
35.95274882314795 -120.5318813565617 0.4439734859835298 1.0564261920753217
35.95886261457105 -120.53243312448693 0.48259945134607046 1.3513956095938011
35.95732052077815 -120.53608480858757 0.8166957767810232 0.9050623424548953
35.96454738914751 -120.53369950295485 0.7349203198662242 2.0963490667222753
35.96289943176748 -120.53524543064943 1.1481186331015596 1.7855979307782752
35.968587544596794 -120.53305598175643 0.7340649513392646 2.7758358400066805
35.96969280999332 -120.53210226493779 1.1300952446365469 2.752683272114042
35.966124232661734 -120.53211383525591 1.5046225283399082 1.1548129002251468
35.97094413385461 -120.5321561422485 0.5394824082198757 3.6133373597653096
35.97207899722397 -120.53251027484436 0.8147723182917996 3.3545538413451172
35.97751630177038 -120.53463859900617 0.7069365801773612 5.254288277591475
35.97845991269765 -120.5317949425368 0.8099208269454204 4.684540306056333
35.98281701883551 -120.53522890869691 0.8367155538315899 2.087810688867694
35.98577882560799 -120.5307360940853 1.2233583246553155 1.7713889961139917
35.99104204700996 -120.53579956004289 1.1569966955836133 0.8086059456309794
35.94629659061615 -120.52972889334426 0.5219861008938035 0.8389084122496177
35.94830639359831 -120.52530804987514 0.5521278133099052 1.3157325903281145
35.94953595386398 -120.53054401619973 0.9992794047628745 0.8299028765644072
35.953601159321686 -120.52930012439421 0.608081614573442 1.9286331805901475
35.95200313045431 -120.5280135640816 1.053244232853403 1.4988531678712895
35.959926956549666 -120.52778600713057 0.2838993888074832 1.8306059931392964
35.96071391569842 -120.52878889144306 1.1836123736590878 1.6397195446824364
35.96422839723637 -120.53022224103891 0.6151753062847771 3.3935777148511392
35.96478014816024 -120.52893117745673 0.8187941667747277 3.614008420806429
35.964671755082534 -120.52646022816049 1.6573338003195204 2.212549846308195
35.96616072558361 -120.52626882126457 0.3448143769013612 3.0440318205811434
35.96843316446076 -120.52759736274255 1.0845969167269829 3.117872271947057
35.971081004130454 -120.529203136203 0.2967070866597766 3.5546262585347503
35.97003352062967 -120.52841548855555 1.1581005080674092 1.8061977325906908
35.97313001612863 -120.52824251855107 7.764556406342354 1.0401355665996104
35.97727199336603 -120.52581619291497 1.2047729684738209 1.0786635403816551
35.98066387055588 -120.52729959603134 0.898575244222976 1.0236992856976428
35.94325767224795 -120.52358166273692 1.2455331890017367 0.8242758938959175
35.947611351805485 -120.51985924792938 0.7828043725413465 1.3886205743683615
35.954491139946356 -120.52390604983707 0.9439861993437464 2.4993494824270197
35.95258785872824 -120.52450772861005 1.5552881685381739 1.056578839840467
35.957703854216064 -120.52475465184868 0.9898134963363228 2.2826466543863813
35.963345060806574 -120.5200190785354 0.9504366190407325 3.4716803854523985
35.9638831336909 -120.5244661405765 1.5064558838542519 1.8241695741694528
35.968497651997815 -120.52245230916277 0.9664188285530251 1.2127772004977926
35.968215502977806 -120.52020650344433 11.562281600236572 1.6703032103317845
35.97259077317859 -120.52367697317231 0.8051561288201858 1.2759427549239013
35.97513021578352 -120.52218384498642 1.098593784071804 1.1682645250892294
35.942145821098975 -120.51786516831677 1.1698977875534502 1.2045115599017524
35.944620540730455 -120.51442343670637 1.001587824837313 1.7341261270166495
35.948654743801484 -120.51443400315071 1.1385388557305822 2.429786329906884
35.94894853205582 -120.51685391680292 1.3144259345007439 0.9540192462820777
35.95268512688096 -120.51892888514368 0.8317144032412611 4.369440219440645
35.95574662052752 -120.51893153310012 1.3141322668245874 3.056179579209021
35.95813832267704 -120.51937313510963 1.0848125496046457 3.7928357473125343
35.957933330194486 -120.51753884401613 1.4191896199797542 0.8766127301445158
35.96142693404662 -120.5166749201594 1.2397134805207732 3.2112388757120707
35.96213522992459 -120.51876883964334 1.4463482905574871 2.4270696453059246
35.96968208050684 -120.51706141097533 0.7651383265044311 1.453369362429523
35.96916464505129 -120.5177248994434 11.53115789156708 2.039177605261619
35.972338890895145 -120.51752154235417 0.9527124978656591 1.1559759178296278
35.93602224387177 -120.50977143816324 0.8076765310361629 1.3792939533282014
35.94026628909768 -120.51386153570293 1.190022007457157 2.3311707878973063
35.94202065081539 -120.51356330197316 1.3054707046520224 1.2995134923870124
35.94310492850635 -120.50928173917325 0.9921718081875397 3.6624536194278288
35.94455866502459 -120.5103849004687 1.628908659879733 2.546510292250506
35.94826356889278 -120.5129645572718 0.8186766360270075 4.084952763837817
35.95125636102783 -120.51199067359805 1.2997703975353168 1.7384808930978917
35.94744179623919 -120.51307386350354 7.913935333191248 2.072523905726652
35.950594145574975 -120.51025612724429 8.537552678836283 1.9551578057158099
35.94782024098021 -120.50859830311408 8.819617400408765 1.641790975996705
35.9474941241695 -120.51008066194294 9.254138565944777 1.055472217088536
35.952980493195014 -120.51193567918438 0.9275523020625374 5.734350816384213
35.95484440616962 -120.51311775041371 1.5160517056894212 3.4507318716583004
35.95421129471825 -120.51132113183671 8.387559615581182 1.1961210842738244
35.952780933319886 -120.51273177391467 9.044988934964756 0.9846519489930757
35.953294792230054 -120.50881204156478 11.283302998680146 1.0183921498428845
35.956968226150835 -120.51025803907112 0.7720641102914414 2.682158764194696
35.95896386737701 -120.51177429811234 1.6753551597328817 1.0268307926458526
35.957119793500766 -120.5091674477421 11.354378777255985 1.2283822725665783
35.96155787981546 -120.51079959216577 1.2270128663455542 1.5871379708284417
35.967557059741324 -120.51049227049025 0.7527272877749027 0.9443928191170405
35.931561464283476 -120.50574541302275 0.9823774511967505 1.4313822374230538
35.93397122336235 -120.50775618501501 0.9087100086247389 2.5297479639493057
35.93781142942531 -120.50487171249318 1.7461303267977364 1.3835555367715986
35.934513882586764 -120.50429965379928 8.587152973896067 0.8655423621235582
35.94010598869636 -120.50286240102515 1.1912816183701151 4.003864971195253
35.94163224964486 -120.50403588999974 1.7374895300289748 3.1928012307474427
35.939404218955595 -120.50451246707141 8.192222519479925 1.7536525495523474
35.94033412711698 -120.50479362058833 8.575397528957575 1.8786483150021798
35.93954492360444 -120.50808050738092 8.985956010890714 1.3890815418313032
35.947111188616475 -120.50457571214241 1.1833538707434013 5.47474594901494
35.94445608115284 -120.50572119479725 1.7154502640120477 4.38607050716955
35.94490910147132 -120.50565398904538 8.209643311706351 0.9414491481486741
35.943708225664565 -120.50651766665806 8.541583808248294 0.8666847751277696
35.950625028487295 -120.50329841012397 0.9427011097940498 3.8561622058521756
35.94877699124774 -120.50674148749547 1.607400538927929 2.3182997658306657
35.94942217790937 -120.5028730414411 7.917496546237726 3.2483064054983832
35.95088098849348 -120.50429006550846 8.702667600308649 3.336618491540092
35.95076695882139 -120.50472244223322 8.948654398068577 2.241757312047067
35.95544813171027 -120.50360622943877 0.8806528303309364 4.107075473726667
35.95430600216215 -120.50544452054915 1.686808790002492 2.8956967553926014
35.95588888905673 -120.5071995767721 8.184504894365677 3.386592926520668
35.95274794260232 -120.5061457775481 8.439931795553365 3.8194241646820224
35.95362529055066 -120.50408714705192 8.909005927869595 3.7675127468556306
35.955729311078066 -120.50329151369094 9.535641252503023 3.3735810635492074
35.952516549966695 -120.50778637009661 10.196156288933038 2.855243724426199
35.95577921525687 -120.50556216851946 10.251234861083717 2.481267888426062
35.95452192895466 -120.5039055681894 11.187947829141176 2.5405522516420187
35.953385853827484 -120.5044829853014 11.385944091080365 3.351801511574649
35.95409672700137 -120.50330520971518 11.816723029591074 5.108230949842028
35.957697053343615 -120.5040469656077 0.9596933220895822 1.2903342003084683
35.92400193309087 -120.49928478301497 0.8659459932556054 1.1107731251595403
35.92805564319595 -120.49863461383956 1.22140534102347 1.7559402768095158
35.92933946866249 -120.50229664803271 1.0301121791556742 2.7129364005782097
35.931420822071225 -120.49740778529257 1.720523377429549 1.6351574667081066
35.93777756289901 -120.50218949531835 1.0776253325752831 4.334372710608409
35.93758527042796 -120.50032719586774 1.4314470219612725 3.6293586890469043
35.936702905554824 -120.49929103424994 8.20299179906874 2.4444396441017036
35.934997934700206 -120.4986234903339 8.402361367463705 2.3279119624804077
35.93766912035692 -120.50018376425564 8.919961542590533 1.6985249367514055
35.941364443615484 -120.49799533768253 0.7726544441075125 6.044397525757313
35.939882113342264 -120.49875768005992 1.266601148724353 6.5129898320935515
35.942057926830095 -120.49845875385613 2.1579887012927568 1.3716231739532525
35.93845273296305 -120.50150027691261 7.85858816074709 1.1981849741815753
35.94525318493731 -120.5012987217592 0.8079114986062758 5.385483749658735
35.94375660119506 -120.50206747770083 1.348078165964306 4.19794261880707
35.94442806077957 -120.50058671551572 11.96061590470883 2.0487498522976835
35.95087446433092 -120.50091758416083 0.9186237983623711 3.355590927815848
35.950676498087596 -120.50280046239635 1.3579896940313274 2.21743666492012
35.94985195933792 -120.50030621174791 7.873276143744938 2.2544845003048377
35.95132520356475 -120.5003569541591 8.649368721268397 2.7365271696307287
35.94982755554379 -120.50202073297712 8.90941917798219 1.4212318159213244
35.95100651588097 -120.50240319445913 12.025125624443913 2.5511782386582267
35.95467246171155 -120.49951510933086 1.375113652116678 1.6987595254763597
35.95214378303092 -120.50264226184656 11.56977361813662 1.0667136782630289
35.9189380534807 -120.49452344044835 1.02151075536303 1.1947095197007553
35.924085316766536 -120.49407976303483 1.4900802071085566 1.3035621983304089
35.928456651620955 -120.49208099176735 1.6229350934082185 2.310141447698324
35.92950471437796 -120.49209733599801 1.3048098222777011 4.774655861989858
35.933799280298224 -120.49627074537894 1.6259757831592356 6.1427933030037165
35.93826877921661 -120.49284545700371 8.240614132229956 5.147606882654622
35.93484518393427 -120.49446916444643 8.666763064959945 4.01169720476806
35.93518985379945 -120.49371005153724 8.847073276511438 2.2504172101429734
35.94159194682102 -120.49370828024361 1.4436715701267446 8.0
35.94189782947529 -120.4928944237299 1.813654391855583 3.576328038213682
35.94191518703831 -120.49430697071821 8.13112307963894 3.4876573993184397
35.94015880552975 -120.49567782897391 8.731681295985792 3.369071945869869
35.93880670871329 -120.49684654074797 9.10433525255674 2.0407679748949517
35.945851036657146 -120.4924212717613 1.6466283334010776 3.956075839762993
35.94652153014365 -120.49470985677425 7.859579377661441 1.1375945841449941
35.942883104157545 -120.49529528974598 8.49798347903726 1.880771138761815
35.94622172298669 -120.4925711420291 9.106407005049578 1.1557886251730702
35.9492893574695 -120.49668722251798 1.5907415983396012 1.3032959220845035
35.95151815691579 -120.49280959529277 8.552581590627112 1.9793858299478677
35.95106786179881 -120.49531864972376 8.842637387247882 1.663115319745324
35.94891793851241 -120.49402003920136 9.724841679160086 0.9057169649165104
35.94888138666339 -120.49659841813371 11.683665603629148 1.15597532768741
35.95527132384911 -120.49705328563402 11.332422627615868 1.4180277633173628
35.919925275323266 -120.49063872030857 1.2618867269435454 1.2401606459854053
35.924367881491044 -120.49064940068826 1.3062237685457514 3.085669827027859
35.92747788732426 -120.48620870138865 1.507694335025575 5.434225806337335
35.929058151340485 -120.49152022889275 1.8587454036505162 1.1712576319189467
35.93210904012996 -120.4880337219655 1.5313773923158172 6.807758015487353
35.93351976968972 -120.48911773449628 1.9913626423019024 1.303633401792602
35.93196075515861 -120.49139367570939 8.130028207030392 2.449992996602936
35.935667056339426 -120.48813713569427 1.563047068662165 4.463658342000098
35.93395989515447 -120.48785842325363 7.751264740409713 6.293705212573173
35.936986831003296 -120.48958465718727 8.639446677816524 5.551747172262579
35.935937000991494 -120.49147395783545 8.77222444475671 3.7484309116634957
35.93484789000247 -120.48977466870409 9.484230304955618 0.8494145571349995
35.93858816293189 -120.49113627647345 1.484573511173328 3.1570667398146894
35.942025456950134 -120.4870752905674 8.505711842040757 1.2874238897355559
35.94310263904786 -120.48862038000225 1.2540909758755356 1.0006729627933528
35.94676911386966 -120.48805174343492 8.3124571560756 1.105422238614
35.949236486083784 -120.4868950121625 11.58848503355679 1.2131378004214453
35.91199402828889 -120.48443359492974 1.4773255105155079 1.6063447012918086
35.91678796415651 -120.48157998850553 1.6530610368254002 3.5266003695063923
35.923063019270245 -120.48316114748857 1.5637761806109058 6.461735791776382
35.92030829545508 -120.48393770358058 1.8615508786113062 1.8840507362291041
35.928528050267865 -120.48486001774026 1.7034638661881059 7.220336516259244
35.9291061938274 -120.48574944102782 1.9486819760261578 2.301739026939176
35.928868939612954 -120.48115221908202 7.908240713249082 3.0664366295323973
35.93367743775642 -120.48520841338456 1.3914594895484573 6.354502558861968
35.92967338205161 -120.48464329432227 1.9906001972206628 1.9177575628563681
35.93334102866287 -120.48592785708212 8.154021657143597 2.4736635766334443
35.9328889612344 -120.48576953809751 8.367099798602277 0.8167710852969845
35.93793009677914 -120.48554216431934 1.548745518069798 3.5135012684272553
35.93621436783243 -120.48336153911546 8.004422542112115 1.6535141558930613
35.93523128090126 -120.48455375142066 8.268550391401233 2.116514891601523
35.934798621769374 -120.48358397079488 9.207242788377156 1.090089743877193
35.941241017810775 -120.48585965698553 1.4609132505327047 2.063142005659738
35.905752408101705 -120.47747124333036 1.3423967439644007 0.8402729322853175
35.90977976510714 -120.47893256669293 1.454538492017058 1.8910745201040682
35.91165825917917 -120.47745525057277 1.2876377246255613 3.86853286112986
35.91690712655782 -120.47702137722193 1.2931179002061848 5.868490505539043
35.92026002960519 -120.47920442996903 8.134913447802646 1.2220673512673683
35.9241591176133 -120.48047786631679 1.283029792505613 7.717461566215416
35.92340601105315 -120.47892975914986 1.943850245698027 1.681776665974373
35.92563167477292 -120.47906044104231 1.5110785190893847 4.739792443796343
35.92738146351673 -120.47889813903384 8.05490865513608 1.2987739113557808
35.93286575684946 -120.47898313192427 1.7057472850938695 3.2202235817509597
35.93739740818095 -120.47539765988627 1.3640839782354794 1.5331351089072798
35.934657172355784 -120.47783051868244 8.69682842497688 0.8540404425019558
35.90181776175415 -120.4706141719124 1.6770479006061645 1.0543086750713477
35.90379382763694 -120.47466873041333 1.5769635124985544 2.118070337310744
35.90836339226922 -120.46975956708935 1.3322754543774473 4.060784074544912
35.9090184098196 -120.47407722503385 8.172053306522033 1.0421881599784815
35.90716965956578 -120.47030281199552 8.3260021068614 0.9945147593037899
35.91455076203971 -120.4749808067176 1.5273681979315548 5.410525623067133
35.91375718865026 -120.4720142417185 7.795315066938592 3.6655276239837775
35.91279573314966 -120.47081314437298 8.721451454313312 1.6285598321085362
35.91704753015718 -120.47037440922337 1.5864383214742528 5.9161574919692
35.91809149268813 -120.47268367939098 8.091478910857123 4.124705303514532
35.917544164883246 -120.46969116203682 8.295040422892592 1.4477866694033006
35.92432419614551 -120.47176257292936 1.2887182232100973 5.77956481209782
35.92078481326543 -120.4708340406935 1.9779212796385273 0.8920116962762665
35.924760007288576 -120.47015324866277 8.147601170960888 1.4955019483673344
35.928533651579954 -120.47413174661894 7.8743865127613075 0.8581138869895742
35.92878485897647 -120.47394839831361 8.393118740841768 1.0710749124737902
35.93127280374214 -120.47040988994102 8.393833981413694 0.8320443773670174
35.89526935192505 -120.46404558324073 1.742183107598683 1.2287549920867893
35.898725787291745 -120.46520134388952 1.3763352776554405 2.5085766139989176
35.903232859072375 -120.4641845070041 1.5255287958316561 4.086177043074553
35.90354539951868 -120.46896622937096 7.82325942292028 1.2296864061434607
35.90565364852369 -120.46884411889243 8.728215453952906 0.9379137063137432
35.902350917154536 -120.46922850156336 11.18821985192943 1.1718843229986766
35.908370914769876 -120.46930334654321 1.3712469644300689 6.301838628117107
35.91061056753751 -120.46754617275225 8.060491110786089 2.3486089112894355
35.91048732029525 -120.46726766190704 11.235302560970275 1.4779035123256006
35.90990548340935 -120.46571432049541 11.614562482316858 3.1493942009934237
35.91483843746534 -120.46793545873183 1.4515198720463354 4.703201374320214
35.91499854899567 -120.46462015507018 7.780737368359073 4.899528606908307
35.91143305619176 -120.46486288224457 8.512989419782933 2.078544568969859
35.91846601444296 -120.46758700581252 7.904642931528309 1.0319993404455368
35.90600742779895 -120.46275952426336 11.442829695608758 1.8874319511639175
35.90758136755731 -120.46145705779435 8.182576837078138 3.235761212749306
35.90818751747434 -120.46072362732252 8.68777309366139 1.4174091308891386
35.909792737863526 -120.461284161677 11.63818004169438 1.555502620300983
35.91269288809354 -120.46191329500957 8.116327445042415 0.9652867486956407
35.90028004672218 -120.45491005946646 11.433692698839055 2.5085645468639632
35.9062844344502 -120.45647048637083 7.76489091146263 2.5801959566696104
35.90560079270941 -120.45692012602557 8.430520028275856 1.1325137524026043
35.90230689753563 -120.45430257025284 11.048866350685685 1.2320185275085929
35.905548887930664 -120.4559779350721 11.631380875051274 3.1533015025272615
35.90909073987284 -120.4534015390624 7.921501161478107 2.111628940893646
35.90711112736869 -120.45381069235138 8.624711481100684 1.7556809952409038
35.91044988049184 -120.45772712781117 11.221662899421682 0.9153444659685658
35.90994577992303 -120.45281005989845 11.291647574759716 1.7557212394935953
35.8974006802111 -120.45160234907625 8.228210951328226 2.8964655087870135
35.89600857348402 -120.44944814910563 8.5215929480249 1.643046546191426
35.895211688986286 -120.44927424214055 11.163723009130193 1.8876885282656377
35.89757828711777 -120.44886042691691 11.714514037547868 4.421586503652152
35.900198830020706 -120.44799610825574 8.217079778312467 2.7627383887230073
35.90021125090134 -120.44791568357991 8.396593193415299 1.6051401164566677
35.89812305732286 -120.45212974361402 10.753526352002348 2.2864253866082724
35.9020305245758 -120.45235345823701 11.592873360402939 3.899236660702294
35.9050601379254 -120.45173184655322 7.754820221342273 2.211823050912228
35.90656025591592 -120.44776254067148 8.542880287737473 1.8114015779000834
35.90269890826756 -120.44835639285743 10.43821545373477 1.029984419531521
35.904050215956126 -120.44830034607092 11.13175913707039 2.1297852506917385
35.88812369221273 -120.44200078264534 11.386775417450332 1.3577554946058954
35.89089077420874 -120.44463362441176 11.738107344707963 2.762658910357694
35.89378169053618 -120.44420427281759 1.86670394137225 0.8939684061088432
35.896125405602795 -120.44405965314682 8.331125402220543 1.110382936331631
35.8948010875263 -120.4449282856738 9.132073472239036 0.8407464521530548
35.897162380163756 -120.44184412846592 10.324811527562353 1.2065338505528658
35.8947361079147 -120.44630437151031 10.968725214781541 2.4238758838184244
35.895345310426094 -120.44718241699269 11.42014256664979 3.4633210894032187
35.90243602453709 -120.44706194826796 11.099459716680304 0.8034210136451245
35.8713819732848 -120.43807671737892 1.7691618505337643 1.152048705337571
35.8781697100722 -120.43909374454243 1.8655545691438662 1.4869136518216364
35.885604459318216 -120.4373052671489 1.98933497448108 0.8513432810398506
35.88967016522302 -120.43884468919835 1.9968689141108396 1.0454485556850792
35.892781227495014 -120.44055985757666 7.783235473525909 0.8378781398906532
35.89647320619238 -120.4399251023605 10.904808403824246 1.016374064253732
35.88496716767256 -120.43461070203556 8.574515937990144 0.8342856985221773
35.89253225588716 -120.43541808850306 10.966918673114597 1.0356069152077605
35.87154029069552 -120.42461792668747 2.534425117610847 1.3016143290407542
35.83558261399788 -120.39277349551223 8.409847686915663 1.6640643765074996
35.835045394623165 -120.39255981085428 9.047729336884037 2.226020975400556
35.83657912000689 -120.3937201864745 9.399824953900724 2.1501402684865027
35.83480457043325 -120.39528886324271 9.93210596444757 1.2542459239705117
35.83743919978052 -120.3887359552542 9.170217569768287 1.1737926567756527
35.815864319451286 -120.37202810652387 9.415754183176269 0.9563238782746749
35.8155209291284 -120.37328427731997 10.810015295808762 1.2736348104283126
35.81820012818259 -120.36972000540996 7.862998136760506 0.9807660060934056
35.82055210055692 -120.37304746151392 9.093435439187486 1.2416056771480097
35.8205745725184 -120.37244183356941 9.33403741097515 2.384489827491994
35.81855052226572 -120.37395575736825 9.991674923141877 1.9131311834251328
35.81886954069207 -120.37115335644638 10.263409592484043 1.1969619912344935
35.82175198532725 -120.3732533617304 7.751623784266297 2.147887774382075
35.8246300531273 -120.3704774180982 8.736954556360859 2.348767737526906
35.82316152742867 -120.37244845369091 8.837458914467426 1.7272817213653167
35.823713847954224 -120.37281045843679 9.435185150505193 1.4837483935068438
35.82498260561734 -120.37233201405762 10.240777059511679 0.8073213575094685
35.8168673372985 -120.36494595559485 8.43024841104463 0.9721102063061969
35.81764017601338 -120.36729694031685 9.508100314471196 0.9565257188087353
35.818676541856036 -120.36906507646525 9.974641230026672 0.8411003317044741
35.812314279357565 -120.3587676572902 8.124633651562787 1.7460375076840093
35.81229445244111 -120.36028734454656 8.487361853352136 1.7228995733764951
35.812204900573846 -120.35958283828751 9.651843194517594 1.2691004904888996
35.815936710666826 -120.36307000573802 10.233685667378047 1.5591125372298482
35.814208638583516 -120.36242384467451 10.735227238788472 0.8788651784467103
35.81929140501034 -120.36242324918977 8.080961093821072 1.220201445101537
35.81743566306105 -120.36379988651792 8.354606598633197 1.0224493506519614
35.80130475260705 -120.35718667952982 9.377909438549771 1.51978453276999
35.799324969138894 -120.35286335851346 9.902060908934985 1.871168428918929
35.807115170641666 -120.3546442272557 8.60891512668677 1.235373850353897
35.806997161110374 -120.3563023744148 9.52494431390481 0.9191487938108928
35.805724795760156 -120.35724421461215 9.806882543279112 1.5462371942993716
35.809749798559565 -120.35810735345503 3.4015367336002713 1.6731496859087265
35.80889912659366 -120.35341998208341 4.246489273210871 2.6196675202774373
35.81027050696752 -120.35459027753664 4.270522337144065 1.6838694802218868
35.810678249911746 -120.35406645092176 5.074346547942185 0.9329945629147101
35.81148775656057 -120.35610971411839 5.585865459431534 1.14125563858226
35.8093703752499 -120.35675592506986 7.953824245836599 1.4803665390183012
35.809718414340836 -120.35740236959975 9.941693800705186 0.8034626761911982
35.81248851356605 -120.3569307999453 7.921095949359816 1.3299004782601613
35.81444287605478 -120.35683566941603 8.612479999819385 1.1373172149639357
35.81281652454558 -120.35751525890142 9.274095090961548 0.9472534300972025
35.813287086479946 -120.35594796392022 10.220210865278311 1.1436421486010757
35.79612884389095 -120.3507835775233 10.016893071695753 0.9206659667968967
35.80006824942047 -120.3525462643266 9.493205319303064 1.403644424216589
35.80188461549152 -120.35213814708082 10.128764528057854 1.550044050872385
