> GMT_LATLONDEPTH
> out/cube/20240614A/PatchSynth/Synth_AS
35.88151544582163 -120.4287966948609 12.07894340298915 4.496952309659768
35.88154381936215 -120.42972025049663 12.284600939721505 3.8296577428390277
35.88222536240376 -120.42751495278314 12.900467715080469 2.9716427771969953
35.881929052834785 -120.43078196747373 13.430777118213987 2.414954591572399
35.88025117641625 -120.43217736146175 13.993413486745037 1.9784741522366982
35.881687316838224 -120.42909730593617 14.565577953351388 1.5347016492488756
35.881881031506936 -120.42908785164204 15.135303547986242 1.1502718957788727
35.88027594854924 -120.43070462768775 15.588051256502402 0.8295719823761771
35.88461965028025 -120.43253323700708 -0.19036642498384482 3.2779898676287056
35.882698099010206 -120.42790598256167 0.5001870155211239 4.319262289686575
35.883308002807574 -120.43119573517363 0.786898404493064 5.016136455456194
35.88372740987503 -120.43005748861269 1.6553798871019747 2.999893132926564
35.88506013792541 -120.43173140916359 7.754820221342273 2.0582223081794075
35.886560255915924 -120.42776310575707 8.542880287737473 1.6856082294502135
35.882698908267564 -120.4283568079616 10.43821545373477 0.9584568297552841
35.88405021595613 -120.4283007753301 11.13175913707039 1.9818816486234194
35.88262794742176 -120.43210438235634 11.31363998538889 2.765306369619664
35.884749033556076 -120.42984062008834 12.224111282766406 3.1869283105080606
35.88499221742798 -120.42905715002823 12.647472225107059 2.884260903172303
35.88258921766226 -120.43242265649519 12.81463730585129 2.325904280118442
35.88471733523887 -120.43263776629463 13.688851469704957 2.0963328717805663
35.8826817911311 -120.4289774332529 14.220970693916788 1.9221097262126776
35.88613208309743 -120.42739099529649 14.600672177265078 1.5218061836700973
35.88529486759126 -120.42729564649623 14.778103835683199 1.1451467711412193
35.88252947967721 -120.42864500352388 15.600583353959756 0.8252474594081741
35.890760502097244 -120.42802593657777 -0.19112096282301694 2.80962543159746
35.887501664180945 -120.42797471034388 0.5543773491805027 3.3509110999991982
35.89019162977628 -120.42749471715679 1.0110252167813283 3.4113820832429353
35.88962755809397 -120.43013785130057 1.4776962925873702 1.8683673296007115
35.88954690069902 -120.43119999067667 12.202218917684593 1.1731107242173653
35.88954319176665 -120.43245472091661 12.530000722126266 1.4272308293909257
35.88965931904044 -120.42753500380118 13.067886612270398 1.1968133966604255
35.88881275914449 -120.42808756784602 13.540043971140873 0.984242451345032
35.88894115158108 -120.42881940334922 13.79839937385221 0.828324701547622
35.8912480429132 -120.42764033120008 14.257814616839696 0.9071462429200553
35.88789851086962 -120.4317313381785 15.192054135117354 0.9838318692243557
35.893564188817614 -120.43176402296416 0.13848248907420457 2.2874196558520983
35.892636500205306 -120.42779918491756 0.5332722941749404 2.486830110802525
35.89524268968336 -120.42724915954749 0.8912777762145023 2.2164562781000137
35.891907385987594 -120.4276761856279 1.5808512671868005 1.0027270565004176
35.893322001639774 -120.42743119757642 12.253413036647338 0.8069739663150886
35.8942546228921 -120.43102731969114 12.939316849197134 0.8240997363583068
35.8943832371071 -120.42723756118771 15.222686393653813 0.8130732406821601
35.89745236402527 -120.42943734957589 0.014262402060397972 1.7884380873194445
35.898890153773216 -120.428656574318 0.4493266906654518 1.789035880263582
35.89671660689868 -120.42968861502489 1.050893592260165 1.4198368125948784
35.90086713382629 -120.43108408105492 -0.06462387883506593 1.3493492774564
35.90163582531435 -120.43259822806195 0.5111536730675331 1.2426814507070523
35.901127057218446 -120.4302193359035 1.1762340489221919 0.8635632458800263
35.90650553890945 -120.43256777278528 -0.20677470541009718 0.9743975406125716
35.90666075314464 -120.43215895164766 0.4623189838933424 0.8095677815820289
35.842882024491544 -120.42417956694528 0.07650931520640886 0.9259570464225706
35.84512263188687 -120.42592096728907 0.5869122393779374 0.8413307160917266
35.846007203911206 -120.42297942324056 12.796239444050016 0.8198523804147249
35.84307625800946 -120.42391101432607 13.321609000304647 0.9099509573784004
35.84467322878812 -120.42531846063551 13.914169182820165 0.9059517706777013
35.844662668696984 -120.42334199225115 14.46926766915165 0.8088615679557857
35.847484927794156 -120.42337107987674 0.041009883454671214 1.3116894788108255
35.84893526070945 -120.42508687161607 0.5539224731454242 1.329082129874448
35.846713673249326 -120.42623275002443 1.2211244329420627 1.1456374049234868
35.8497644714164 -120.42307504244647 12.284650622974974 0.8565608118149007
35.849274279171354 -120.423655001849 13.162028717371168 1.0588130751599614
35.84653668557844 -120.42334338993676 13.318415269265039 1.1292683670276116
35.84964164323087 -120.42298955232353 14.1510600771381 1.0950646916244633
35.847929523060564 -120.42324767520878 14.41136154661417 0.9498309446931404
35.85240518999023 -120.42263571723586 -0.11023932829731975 1.7544938915102484
35.85481184211799 -120.42521188850803 0.41014344232430805 1.9311558530510298
35.8526754064837 -120.42518860617977 0.9602755279617865 1.8817102861806903
35.85195286711541 -120.42205322649704 1.3212094257664764 1.345544411419792
35.85505887711917 -120.42282567035657 12.525398095801622 1.1790018820886923
35.853102145563774 -120.42551979572889 13.028538820682474 1.3225036012828715
35.852672006403246 -120.42308156266364 13.696622604177255 1.3762533933136016
35.85251158966734 -120.42178142389884 13.900292184708736 1.3170328542072431
35.85172865208084 -120.42215876185573 14.533722798401126 1.1008154056986683
35.85482344724402 -120.4225910913964 14.922538762379107 0.8635938145664708
35.85892554906979 -120.42410805417441 -0.032980340847583556 2.240279669722951
35.858501284895006 -120.42472269509965 0.7251408499230515 2.6615599512618044
35.857303260780036 -120.4228039460108 1.0975081697786808 2.8594136758132724
35.858556231874346 -120.42552687488796 1.384494758936622 2.275061555745356
35.85917254827014 -120.42483995623688 11.763839965420038 1.2044451540122323
35.859439524267955 -120.42219845604768 12.59583772544835 1.705904040902526
35.85849329267629 -120.42511871557998 13.23969932132566 1.6382582433436312
35.85954667188924 -120.42450547661672 13.373483572832297 1.6579096113841099
35.85802732754592 -120.42604321543618 13.854718322698542 1.58998523706281
35.85739299497855 -120.42349698656523 14.364131403598435 1.2508386121733215
35.85903760271023 -120.42238051874793 15.006103259991676 0.9513489904898642
35.86052080712125 -120.42638318390452 0.10820367314470847 2.7428128654579798
35.86366700871842 -120.42301793466699 0.47089361113506417 3.5468084444653036
35.86226019462348 -120.42265239328263 0.837512106409089 4.348655296604038
35.862495324574205 -120.42453679905029 1.3084352695734762 3.478885120922053
35.864048803130366 -120.42277562241728 11.76280463633465 1.7046781515649434
35.86371031662817 -120.4262623095072 12.734540384222942 2.482864726817534
35.86030457656183 -120.42696744146099 12.833163096533141 2.0082245590765613
35.860592531352964 -120.42439767136446 13.28442391254585 1.9429960834431164
35.86082987852714 -120.42404079470195 14.248875527937635 1.8960917137020115
35.8633871142772 -120.42573054690739 14.400404342792326 1.3727675085911681
35.85982385468309 -120.42561477768209 14.818698685716365 1.0205841839124896
35.86447733320495 -120.42420130613041 0.18905157521038918 3.1911550425258155
35.86532875413308 -120.4217816162343 0.43360867168206585 4.545973379795817
35.86574130429641 -120.42398547992403 0.8722449130017667 6.221119809583595
35.86870663436315 -120.42362759576845 1.4204903247911835 4.627048957114099
35.868123692212734 -120.42200280290211 11.386775417450332 1.2634657401271092
35.86837542236999 -120.42263027031028 12.117606727156396 3.213432419386882
35.86627585661582 -120.42271346480517 12.554382646534998 3.120148823748985
35.86736643775876 -120.42607119229442 13.12827566517435 2.238370088783778
35.86721869527625 -120.42171303604081 13.73348203014384 2.120472808623143
35.86806527719321 -120.42668853603944 14.10374281911215 1.983743743127234
35.86850338672734 -120.4225666790321 14.418884896638186 1.4340014554702571
35.868424836182804 -120.42516416813739 15.007058241726353 1.06416032225224
35.86904390642528 -120.42247687918068 0.10616159818210114 3.449357745306322
35.87297788185239 -120.42380764131762 0.5911473206562725 5.2057228394510755
35.869943600626655 -120.42439145673747 1.03252419256567 7.263082380279601
35.86997964076286 -120.42658299640816 1.639064318512514 5.562767972577641
35.870890774208746 -120.42463497972645 11.738107344707963 2.570805199287375
35.86998862308102 -120.42461779083337 12.2410718682214 2.5749548442728587
35.873030135696155 -120.42443348996572 12.365414842548104 2.6001061128150846
35.87235597399767 -120.42374658527646 13.215797880117524 2.772766054627365
35.87290672380037 -120.42683146024694 13.684586460278881 2.1702697950682284
35.8701827486056 -120.42218175824006 13.756710560094694 1.8671094094847638
35.87008493945209 -120.42313579661293 14.3516739576925 1.437454136590291
35.86915869683073 -120.42181266060074 14.885925329251315 1.0829534956925186
35.87465039634753 -120.42509277019542 0.033237209858804906 3.4113010788658236
35.87394004732327 -120.4241800521932 0.27916578330989256 4.860168777830769
35.87652941658133 -120.42554470223699 1.1339404764785113 6.496216444998035
35.876799868289616 -120.42586130205065 1.2711987835680907 5.12292149861847
35.873781690536184 -120.42420573656793 1.86670394137225 0.8318864908754519
35.8761254056028 -120.42406115342185 8.331125402220543 1.0332720464401248
35.87716238016376 -120.42184618828678 10.324811527562353 1.1227457303862112
35.87473610791471 -120.42630530486645 10.968725214781541 2.2555490658602113
35.8753453104261 -120.42718312859246 11.42014256664979 3.222809674425798
35.87409727162462 -120.42673634813869 11.765030711975363 3.6064552480331815
35.87382718020627 -120.42430204730285 12.303768518433717 3.0487726746646215
35.87504316523552 -120.42605855546876 12.953908443389071 2.5349232810538247
35.877149041167335 -120.42370681712165 13.653151192216082 2.1008561334771563
35.874776867575015 -120.4265056584426 13.853494874196068 1.7747684744360834
35.87757387064518 -120.42179250694979 14.336748534481684 1.4133608782670637
35.87591575258564 -120.4257306402898 15.104343092434622 1.0813561118247534
35.88081968187152 -120.42327367177634 0.2004448779154251 3.1097286385964953
35.87818937236662 -120.42298520744626 0.3326062236290115 4.016825048865479
35.88125843569703 -120.42484580994451 1.0121021457799437 4.729692841602041
35.88142361114124 -120.42372832725606 1.484764262730227 3.1856179438283467
35.8814737581853 -120.4241889825674 11.402092412877732 1.772372936724758
35.87877219268225 -120.42497293470566 11.99151786974885 2.5546215490466904
35.881455717795326 -120.4225785246903 12.352305328899575 2.5872583000894003
35.87915958007754 -120.42468205794009 12.929357025273525 2.257106620069537
35.878696632657785 -120.42486507018396 13.409719054829091 1.9484471944557922
35.87826987300998 -120.42499945792467 13.859208396476433 1.6663102501348792
35.8781650969388 -120.42563387715543 14.701683068240007 1.3526029750936248
35.87866281038343 -120.42201620461702 15.068980875611057 1.0489762897096109
35.883934051685806 -120.422494249764 -0.03934046115208001 2.661100641195398
35.886206601562264 -120.42210283665153 0.36090662596090173 3.099405813496257
35.88250101612671 -120.42535349424314 0.9888032769429079 3.045953175471048
35.88410244549826 -120.42254028256366 1.6420609160314121 1.5657439908925062
35.883411074596744 -120.42482460125781 11.744263079193756 1.3424990893658462
35.88444720502889 -120.4247572054305 11.779918805939438 1.741479908167795
35.88447738047554 -120.42489453173664 12.68650844926809 1.7993994374056406
35.886580803643454 -120.42353338343202 13.203932705609295 1.647386521649398
35.88264192152955 -120.42330724289528 13.577960760403588 1.497735492642067
35.88239892750612 -120.42470621909612 14.011126855825157 1.3508452723827225
35.88436956406346 -120.4240512754849 14.31959308882863 1.1564622346597015
35.884688010288066 -120.42407904834798 15.200699622979291 0.9453722343928737
35.88882890149743 -120.42719812223228 -0.24440503923906126 2.1775097049723287
35.88753851303466 -120.42689945629887 0.7272614094358127 2.3091001764482764
35.890810726958215 -120.42671687732886 0.776316653018363 1.9575775112132596
35.89064168917163 -120.42403054690084 12.310435080678577 0.9105128964774809
35.890292480367705 -120.42691668584474 12.948576784583825 0.919282447161415
35.889051058028166 -120.427166069132 13.548624241198535 0.8781744308254529
35.89022631913064 -120.42193968717268 13.978203071177948 0.8418408793595856
35.88932634353801 -120.4258753244766 14.382124536232153 0.8196899726931361
35.891325526260616 -120.42721450026022 -0.1818200244533864 1.722489321143911
35.89537419808576 -120.4231255134608 0.4030699434318054 1.6826007744796507
35.89543883573954 -120.42597037229204 1.2253610893601954 1.2653933830672186
35.89776693353978 -120.42289086610904 -0.06459778601870109 1.3203635635204385
35.89832505285701 -120.4221607551907 0.7186187190125597 1.1912020914050447
35.90373194404343 -120.4258124419775 0.2064686336898781 0.9761990057480655
35.90183745729611 -120.42485354840932 0.555306290807295 0.8047108969798855
35.83926303877683 -120.417231574327 0.004486574862867021 0.9508561325378642
35.84054997020467 -120.41694797586601 0.42627322119238054 0.866093883903238
35.83825507302179 -120.41658197511744 12.865502072752244 0.8499022381843853
35.83882959450845 -120.41936574417029 13.590333767082763 0.9432212808947092
35.83856516734386 -120.41775837448021 13.948326464891249 0.9384863220246816
35.840618448261495 -120.41712579398298 14.530949205942017 0.8353068969359393
35.843146562439486 -120.42128039800832 -0.05539262655613736 1.3051603334289021
35.845566557934745 -120.42127616420262 0.3344060743032546 1.3239315088380665
35.84560672750741 -120.41775202601492 1.1730994138771256 1.1298419922658502
35.843477678238266 -120.41668519861445 12.304257729363242 0.9268327670147922
35.842077720006664 -120.42073801493497 13.074083752023084 1.1207216001645244
35.843891911627566 -120.4174285964781 13.697455700686582 1.1862511382550587
35.84310810542736 -120.41929798472349 13.86309664820816 1.1438873319312493
35.845544668140924 -120.41733197790445 14.28738507460955 0.984247333326167
35.846411542701965 -120.42067476775776 0.034399834238614035 1.730848072626159
35.8495941312094 -120.41917643433979 0.3979207569401361 1.916689980875083
35.84660454421989 -120.41712876305924 1.1496286820422483 1.892936137154146
35.85046636403387 -120.41941957515483 1.714218841646036 1.4180133449816326
35.84956402173385 -120.4167575304399 12.4234397607919 1.3233548714766454
35.84848380230165 -120.41878499082326 12.760826145344193 1.4453323750714675
35.846217158523 -120.41670458251431 13.573989355150704 1.4705362038032102
35.85065297444983 -120.41703014976719 13.956392026598412 1.3885469148238516
35.8478213850565 -120.4195991708841 14.693140518543723 1.1425126933783523
35.84896026390398 -120.41993242886343 15.059544141168734 0.887555379458246
35.85230415694503 -120.41860995163267 0.06995576199057751 2.203063144254636
35.854227576519754 -120.42043573893365 0.4501942006884195 2.643492578976158
35.855144206604415 -120.42007092509705 1.0934619492353332 2.9194152800552957
35.85264684853521 -120.42070018325443 1.4783796960804472 2.5413894090344082
35.8513819732848 -120.4180797286851 1.7691618505337643 1.0720443231012737
35.8522589607675 -120.41935665653946 11.983886923993634 1.2349148381287187
35.850788405376676 -120.41838308491202 12.736646743077896 1.869318439556155
35.85508958904189 -120.41651682932905 12.815121495625695 1.7613628257214962
35.8529337108224 -120.41691364174214 13.547553533831243 1.7781664354838773
35.85395816401613 -120.4198293423953 14.195978493407164 1.6855698493006648
35.8526229170328 -120.42014393206692 14.260976078011458 1.2939808346673638
35.853974152304374 -120.41996320482687 14.894328766286906 0.9729840501409155
35.8577174822725 -120.41683053329055 0.0015283024880926588 2.680881552955104
35.858590632922215 -120.4174259788586 0.3909701305454209 3.5026896935751437
35.85639104345628 -120.41660371138389 0.9746387157902014 4.452383384743631
35.85816523417662 -120.41812289673682 1.3975147190471762 3.9635694182188996
35.858169710072204 -120.41909649899148 1.8655545691438662 1.3836544687666548
35.85848459780513 -120.41997267230494 12.191843611174969 1.6266635506371
35.856556138428495 -120.42129880129848 12.56428455217499 2.3167531402825965
35.857765740409434 -120.42161537752715 13.005493644424904 1.956817304681759
35.85870751814671 -120.4213262145536 13.55619569044195 2.0827415773639584
35.85729488317077 -120.41809147170233 14.087095300173885 1.9858513576719745
35.857630772310834 -120.42064204700492 14.745926759789855 1.4058732978056352
35.85759981762151 -120.41819984418099 14.843285904769145 1.0347444479862267
35.86322744611414 -120.41728156299162 -0.06708785480858664 3.0858596411343084
35.860233056141894 -120.41743958188007 0.6691815404481984 4.386222018869363
35.86237090311724 -120.41953447267919 1.1383235230953286 5.783395526622048
35.86080375221868 -120.41908168710326 1.714476550985856 4.194746009493827
35.86266547300097 -120.4189797718639 12.469779616824695 2.145060106568368
35.86050163327125 -120.41684415548397 13.06535121880047 2.6809649946566743
35.86288135325452 -120.4178730039241 13.478849356181659 2.296689600165064
35.861553428205724 -120.41707137759562 13.911982780733831 2.0060953188355564
35.861593097736865 -120.42051460793665 14.442886593284362 1.4442437167888336
35.86102135758595 -120.416584369617 15.239587857638686 1.0648684592852935
35.86859011133042 -120.41692901985138 0.12732121924733208 3.2985398645757784
35.86872518890275 -120.41739775935847 0.6357299918975774 4.913459795709399
35.868475502211226 -120.41802623126551 1.219574200292072 6.970944769436321
35.86742825180537 -120.4164956088091 1.6523263567934137 4.977238793012075
35.86436379764398 -120.4205741460618 12.005583023106269 1.1852293788616861
35.86460347860764 -120.42115345499444 12.435865481106283 0.811128210021502
35.867593715507034 -120.41874247137041 13.202930902290888 1.6627159229702044
35.86439436466484 -120.41671425525081 13.62461291127231 2.257149750646006
35.866952911002564 -120.4165074165268 13.881665985233372 1.8442300623010899
35.866078080742554 -120.42072438585575 14.497031119542605 1.4144792389935092
35.865507463983526 -120.4195687659879 14.752349299370414 1.0638182926965571
35.86888797839936 -120.41720301066842 -0.2370498770640848 3.232414837135336
35.86974508224597 -120.4215442152114 0.7035110183681044 4.508608601148679
35.86944408838236 -120.41819572129958 1.2123041284810934 5.919005390929907
35.872394976739116 -120.41886529340466 1.3390510300732705 4.34050959364698
35.86967016522303 -120.418847506548 1.9968689141108396 0.9728470541427413
35.87316720457736 -120.41624119223306 11.29456494209574 1.9970099592760646
35.869668943029545 -120.41632902913582 12.148729449542026 2.6132002615867957
35.869998270565965 -120.41832673282116 12.613840067645647 2.4020518928770884
35.869226681768396 -120.41704722150419 13.218065607891274 2.26242666528877
35.873171961155094 -120.41837295411698 13.71497298912884 1.9982962616105269
35.87090150640172 -120.41923680720818 14.067100981463767 1.6855954063439464
35.87323950058318 -120.41753819329995 14.525134694431275 1.3483983503334056
35.869871530194494 -120.41641678452501 14.767033815742398 1.037745075714099
35.87376926857226 -120.41859452878714 0.11041902341839455 2.933122232338741
35.874813131203375 -120.41769969903211 0.7078724223461987 3.7219873077920553
35.873965213297986 -120.41955941433105 0.8567340030847326 4.292195277119683
35.874192565605135 -120.4165566070872 1.4522150551307167 2.9087430901048097
35.87647320619239 -120.41992764684447 10.904808403824246 0.9457916498515665
35.87705138435803 -120.42088041351019 11.380331883098512 1.7225443114675811
35.873359009197955 -120.42022800052065 11.86229532917921 2.2260621461217895
35.877704186349675 -120.41676099600832 12.274656503614274 2.1880230434224175
35.874636436975365 -120.41746812938851 12.865877312682729 1.974977700744889
35.87421398322172 -120.41633416364314 13.366585706645038 1.764322924580994
35.87532155200199 -120.41833867617464 14.093752649576627 1.5322172429526555
35.87659667696961 -120.41890710058361 14.303019354505405 1.2594932982419864
35.87698169851546 -120.41888513861593 15.17281132804923 0.9885421722991713
35.878276708189574 -120.41659492119994 -0.2208768544430879 2.5075869113049585
35.87877673879868 -120.41974676558662 0.29043422219808285 2.8892036323153873
35.878701121543735 -120.4201494675118 1.1074102971281274 2.8473816206446987
35.882044134508455 -120.41700355654855 1.2840746028809313 1.6100246079606946
35.88106711272633 -120.41953968522314 11.38286977138161 0.9222424472961214
35.88038744142928 -120.41726587313464 11.984722384349265 1.4555506334462196
35.88213042317412 -120.41957945155274 12.50372459505926 1.6490203975018596
35.881474588529514 -120.41653050066425 13.12475022618334 1.6140660272065104
35.88100189818264 -120.41926817601514 13.492087315447073 1.496826976686521
35.879276959218515 -120.41635573799225 14.210982368590507 1.3370231703789217
35.87808086699931 -120.41926802539807 14.376204039106739 1.1286789813485647
35.88084693569148 -120.41834608335171 15.084873168117285 0.9063111899880321
35.882576291773994 -120.41726223344267 -0.06505659687207083 2.049323379626327
35.884838854279536 -120.41753186483308 0.5705851989071381 2.1400817658746103
35.88662805690682 -120.41972121133566 0.8909343961743619 1.7912181183566676
35.88306419928756 -120.41846837339779 11.949063586766952 0.8658686473366193
35.884112623807106 -120.41635780512783 12.531017842308422 1.086426253470958
35.88241339066097 -120.41908397728618 12.75388044493894 1.1402488233174477
35.88633245539533 -120.4181879363094 13.479149703779958 1.1161786707108703
35.88250072549461 -120.41885859136013 13.868477879454202 1.046901701753292
35.88583068798549 -120.41947093644838 14.45841971170716 0.9269018363830174
35.88773388393731 -120.41840458769161 0.08631256883320904 1.6213012927880057
35.88681109669173 -120.41897035167477 0.7498070459876034 1.5420985333685902
35.88775484776542 -120.41962725791082 1.2089755121979218 1.0938421012181174
35.89559734718114 -120.41974248320145 -0.018487373501140325 1.2499468155710132
35.892865655976024 -120.41877558387905 0.5502496114546824 1.0895715706350215
35.8960225502465 -120.41834300071255 -0.052097921751114884 0.9366045538980247
35.833102867724904 -120.4158553359852 -0.16869801736857604 1.0167918348264942
35.83418288958047 -120.4119105662537 0.5733799643154721 0.9542138309005128
35.83547143936338 -120.41562153281083 12.83068310311892 0.8371454763487193
35.83526692585509 -120.41301393704795 13.741599988885493 0.9481505642131983
35.83460376279763 -120.4121310116807 13.81689855685135 0.951751051530478
35.83528036474115 -120.41243391291458 14.373082080497994 0.848308401360713
35.837428426578775 -120.41097458516269 -0.055771621772911506 1.3432458153511435
35.83990570510237 -120.41557732115568 0.5021048137092716 1.3814745308145602
35.84121532832214 -120.41541517954005 1.1042330055925011 1.1914185278415086
35.837889021309046 -120.41363602301341 12.57926855533931 0.8859263208268604
35.83978872195831 -120.41269754496638 12.919763151385453 1.1061315433651218
35.83988675490067 -120.41448192229923 13.62512288530283 1.1972433821525146
35.83869529618548 -120.41143321483068 14.064022612012446 1.1663633032890444
35.83779759415101 -120.41550902316855 14.429103013784935 1.0023356160618657
35.8392914197203 -120.41329921667875 14.819261963941184 0.8020826909059071
35.84293605199446 -120.41120222362318 0.16471595390022592 1.736921185301995
35.843602428866255 -120.41322834199597 0.344677299667169 1.9410653483403673
35.84222408055812 -120.41188535993015 0.9339536478734705 1.9258337652645885
35.841920947337776 -120.41333495138709 1.621479032158925 1.3944793029495048
35.84391123729648 -120.41600319677343 12.444851440745435 1.2976161697545394
35.84220676708808 -120.41507379602233 13.20395002941933 1.4331448180916186
35.84420161663021 -120.4131061961298 13.408478057766173 1.4976597299032948
35.8444478065446 -120.4141904331346 14.122665559013686 1.4295932121290273
35.84618977520155 -120.41220758424106 14.544572770912037 1.1666670698214778
35.845431960581344 -120.41394876101214 14.939959839877716 0.9009425933166941
35.84668354296649 -120.41193540183828 0.02857493291869645 2.1748898407884236
35.84795188206533 -120.41225448628416 0.5750266581551741 2.627136182584023
35.84658032703661 -120.41452420349901 0.9883770762264736 2.9446637455906655
35.846229239480614 -120.41488740255886 1.474678406324392 2.7588815515071214
35.850174542243785 -120.41121942071763 2.0513409379425838 1.435487020763364
35.84662419074799 -120.41068918908792 11.856319910151418 1.1416854155794678
35.84708507297061 -120.41382374328363 12.2605047638988 1.8711009875646694
35.84787047592238 -120.41369768341951 12.966097085097863 1.7807431116634773
35.84756047265992 -120.41285313456032 13.39851899240875 1.8445592137352058
35.850661748932225 -120.41421109383859 14.066164012742012 1.7551000054831098
35.84880235177735 -120.41128302185156 14.689725609070885 1.320689454150862
35.850474868105664 -120.41139248841696 14.988385339827643 0.9850743294258988
35.85146975423737 -120.41531932785676 0.003241665614374112 2.6121648507828463
35.85325555389996 -120.41155933091265 0.5457336318755294 3.4127222729933004
35.85413730624581 -120.4153794355662 0.8785849972392624 4.306202199879827
35.85101328427564 -120.4139190258099 1.511466915604394 4.2596850819403
35.85193370923555 -120.41371754709516 1.9168776625966089 2.237151235586191
35.85105042296196 -120.4152435923414 11.760023180773889 1.7520697190209185
35.853633517699535 -120.41527477182962 12.286774527860887 2.508377337130807
35.85510309965937 -120.41368283320817 12.82419438221253 2.1484258684805666
35.85140690218606 -120.4124780160754 13.452233047459975 2.228934881582847
35.852469869205045 -120.41273349560264 13.927762748758866 2.0448606638999722
35.85385297207683 -120.41538581365546 14.67266601791966 1.4252492596774478
35.85079010690079 -120.41153552743967 15.03573011567218 1.0415098168166848
35.85849624539051 -120.41286022358219 -0.13545947648425166 2.9690832792256767
35.85841153252831 -120.41244702097933 0.3754928985815788 4.201995493857795
35.858417996481826 -120.41538334755761 1.24615501920506 5.850598988629022
35.85547942934584 -120.41199666984548 1.6328730382932666 5.425561886345976
35.858772860832055 -120.41260285876335 2.127030243578744 2.8711598967883196
35.8563782661448 -120.41412586046718 12.828282943047506 1.6490388193965266
35.85893018130308 -120.41547682651513 13.449935330468865 2.4639765166925764
35.85626809839955 -120.4126484734274 14.189555836102086 2.01449367991504
35.859265695623925 -120.41505106084746 14.601596260443696 1.4476331223187837
35.85526456381633 -120.41511110142619 14.907913051321586 1.0622489195166318
35.85977779534948 -120.41375214264716 0.07251924389244624 3.133333432244584
35.863343754407154 -120.41097999142269 0.683194447510661 4.578753056284557
35.86159132238786 -120.4116536737704 0.7934845548680732 5.971404453688371
35.86075435350217 -120.41207356395103 1.483902139636117 3.7007324553350562
35.8615222113838 -120.41452503073056 12.701061157469729 0.9063485574397706
35.86196968275512 -120.41149645987419 13.213925160575773 2.468036876197342
35.86054146662732 -120.4149337418885 13.539228562266695 2.3477441301338318
35.86103525207816 -120.41478305695081 14.008875681137047 1.8362060926881645
35.86258032831055 -120.4127114307829 14.25785722355244 1.398644579801776
35.86376241345662 -120.41488126845108 14.87408569240969 1.0487645364328662
35.866176057705374 -120.41536119658943 0.20767511586535953 3.041389411633206
35.86834017191777 -120.41458297280842 0.37959383629960036 4.138938678715295
35.8671156589226 -120.41358073574412 1.2329454743668187 5.238819222326375
35.867901203122145 -120.41410175467138 1.5034134374312507 3.6030860467895605
35.86436415677071 -120.41122357103897 2.016250940717715 1.2177907338712184
35.866523627975276 -120.41182971342946 11.340344287845856 1.4440239137281894
35.867298130420735 -120.41106670314879 11.974205074911085 2.0541813695960784
35.86504968966595 -120.41177461464048 12.324781587002299 1.9967241891803338
35.868653259916165 -120.41213651758464 12.995481189402934 2.1367914915300745
35.86438675607807 -120.41599394721727 13.351392684667001 1.9875130168188566
35.86810912901261 -120.41147581136448 14.138023704944471 1.6467218010074711
35.868062693858356 -120.41168321781666 14.311467208643489 1.3112788841544194
35.86873061698809 -120.41536664993052 14.869205013585592 1.0089208567566277
35.86894911021517 -120.41301787333944 -0.09359163803536186 2.7456701375040873
35.87124377140137 -120.41152744098945 0.720545911431587 3.413360921917423
35.869063624902594 -120.41241843086144 1.0684322041653236 3.828775206735669
35.87265492758907 -120.41462399207036 1.313748480045211 2.6529147226686196
35.872532255887165 -120.41542177126405 10.966918673114597 0.9636888694628483
35.86937884334403 -120.41058041325127 11.692984924827547 1.588212217392136
35.87201003924639 -120.41538364192718 11.806415628762718 1.9161506235937233
35.87097134167016 -120.41441054942334 12.25803385983477 1.984969625037986
35.86886978927164 -120.41203995125251 12.810288018546895 1.9009852265262277
35.87106535830424 -120.4158617312299 13.345821884986059 1.6928749906053404
35.869062947914884 -120.41076248479253 14.07714413119649 1.4656972687115637
35.871653033337246 -120.41431498960698 14.55812362367722 1.2060534635497049
35.868770591956654 -120.4140611482043 15.065498604171722 0.949415894506961
35.876654959141575 -120.41474767598261 -0.22262285301307694 2.3453216652475275
35.87418150057713 -120.41283479869544 0.5635450266075944 2.6638174451771
35.873702040218404 -120.4108807907828 1.0719878455963336 2.585072078803408
35.873695590860216 -120.41150983575443 1.6090915619084019 1.4739503676375336
35.87436807081328 -120.41158602920278 11.746274840603569 0.9556704337836553
35.877243423609954 -120.41570413064174 12.025641746939304 1.3749020770380125
35.8773496852507 -120.41074555035748 12.314514951682256 1.5260547692505857
35.87644313879747 -120.41549721831781 12.866140138704917 1.5150371922500323
35.87623544149567 -120.41412199210421 13.513244086536366 1.4262022037285327
35.87709937287907 -120.41262182615125 14.135505500886373 1.2816749291325489
35.87746550307292 -120.41063540203899 14.391757785462927 1.0835106570698996
35.87417895043046 -120.41327681374251 14.982107642469092 0.8706396911348865
35.88193916149422 -120.41106710691328 -0.13013770396904306 1.9176297933463198
35.879179116873516 -120.41151815259647 0.6121956120369332 1.9839404591092582
35.880624298148895 -120.41215032531728 0.8999117140691391 1.6579903999574381
35.8809033216968 -120.41369219539911 12.2059410359846 0.8686159921896357
35.88007972869247 -120.41233834625615 12.558875321710842 1.0928801883958235
35.88124482162919 -120.41498491815442 13.158009775682865 1.1653430148808694
35.880765828347315 -120.41221834928281 13.591191069335894 1.1502060914244558
35.88143627411463 -120.41518488446047 13.809797537828462 1.0720000556050007
35.87800082390291 -120.41187685407712 14.746594319883982 0.9331744522777842
35.88550507938227 -120.41436826810089 -0.18518690344156885 1.5137349559613296
35.88270751378956 -120.41178731477969 0.2743037275679087 1.4199981293767765
35.88442991785242 -120.41553590549911 1.0818664938224076 0.9916198492629038
35.885542672686384 -120.41251604621847 13.479628751037822 0.8424814816343575
35.88543558799706 -120.41547909044085 14.215514882909668 0.8280196705147606
35.890340021320554 -120.41099682412855 -0.10790399823207497 1.1616760669991553
35.89078716539648 -120.41372971030576 0.7220748599084097 0.982691461790318
35.89225968938655 -120.415738214122 0.0905851343846622 0.8687368956684024
35.82813783089656 -120.40822988829629 -0.11404410534347204 0.8290547041587868
35.830976781672945 -120.40523011524351 -0.030874106659566136 1.0860596955587727
35.82912319130977 -120.40974577652041 0.4151083369260194 1.0576167205239237
35.82991592475373 -120.40903544743796 1.2256524300885188 0.8394003958033968
35.82937342073172 -120.40899704736508 12.93233938613847 0.8335679004679171
35.831723261005905 -120.40708034221502 13.689794257490977 0.9525328152611205
35.82822316182609 -120.40728441359965 14.167478249288049 0.9603464822415014
35.82923258246437 -120.40811232117063 14.682437057206158 0.8553284814297409
35.83695331148852 -120.4070350366719 0.003022984842295129 1.4020895113331795
35.83501687810475 -120.40647276329976 0.5853830905228514 1.4813022017948656
35.83357754664139 -120.40640512080935 1.0024005343715443 1.3452203525670832
35.833037377478 -120.40911061917846 12.316154724640478 0.8468300068839204
35.83667999709392 -120.40696133849413 13.045487916270721 1.0928625133941747
35.834009475238766 -120.40850819740042 13.387140296438655 1.203115128799859
35.83291022429185 -120.4063994483278 13.823221745212264 1.1811422252025998
35.83342879452349 -120.41039835782674 14.28912087939151 1.012232082043995
35.83610254523612 -120.40728457689836 15.185831634488913 0.8074965501266975
35.841013246057344 -120.40992785192023 -0.20802230941281147 1.7722763815137133
35.8410498203974 -120.40902864798626 0.7059089613465042 2.0226380330340894
35.83895066582565 -120.40527027274398 0.846805601963948 2.073789008325214
35.838569684007 -120.40791116977708 1.3869002271435815 1.539617357080741
35.83787575465931 -120.40873121869049 12.329868439058126 1.2451511983349195
35.83822106391508 -120.40841322036295 13.007120258201944 1.4168384515636139
35.837246482670295 -120.40922045744055 13.621726414611086 1.5148269343203755
35.841364741221284 -120.40996726116315 13.85982228193673 1.4604489937191805
35.83727013288902 -120.40810361331545 14.703134685831884 1.1806748046131328
35.83864673080263 -120.4097552645295 14.910600196932613 0.9069455177275705
35.844376530864146 -120.40610207716736 -0.24714819438479185 2.1736327264124675
35.84329838428394 -120.40764122396533 0.3597642913287795 2.6671251105535116
35.84282216579217 -120.40782158692292 1.087456631817636 3.062824993184094
35.84377187540931 -120.4084050097972 1.3010778213222696 2.916909386854636
35.84271920048248 -120.40861943897008 1.9461838073942883 1.328867651992145
35.84432611951562 -120.41032981180491 11.792865134207895 1.3429011515417706
35.845312131099995 -120.40838563796427 12.70206179133952 1.8475440730750896
35.84488460278807 -120.40707403980505 12.974485930925379 1.7731616527242622
35.8433771281179 -120.40653329245069 13.42231847018151 1.8881453952292322
35.84444210837921 -120.40687554429405 14.028954988444088 1.809442088691401
35.84302972736879 -120.40812280694827 14.719308611425749 1.3359867711444435
35.843173548918436 -120.4103160764444 14.866144093430234 0.9901276607993391
35.84931785255312 -120.40503297669588 0.11246793096781876 2.5600281862675396
35.85031306848819 -120.40751674620644 0.5444576054260327 3.3705320556950813
35.84848650237523 -120.4102435958704 0.8792533283843278 4.266201058560926
35.849130770355075 -120.40526900687296 1.38034403351259 4.437582647678713
35.84801474170641 -120.40862180125109 2.0407791576125063 2.3818442165511713
35.84826397889643 -120.40560017171842 11.920635306410343 1.5803942392557544
35.850285374323036 -120.4078492563017 12.486347658761652 2.4698047411283075
35.84875691729317 -120.40677567059491 12.91439303208488 2.211722651281446
35.84865248360315 -120.41012284289913 13.481963606394341 2.3003464956207917
35.84785667621115 -120.40757063091172 13.899309648475946 2.0753703176493374
35.84907713687915 -120.40704797440675 14.493452423565985 1.4345610098949482
35.847768612849556 -120.40536330071421 15.122778764831443 1.042971241982502
35.85150575080825 -120.40835479548032 0.030161278143977732 2.85654561381448
35.85502024487769 -120.41028863406336 0.42775997280006195 4.02705163053958
35.85152045557803 -120.40778381227818 1.135382905320776 5.560234039738701
35.85357266017234 -120.40858588128125 1.3494200518265715 5.735682979514532
35.85479058398579 -120.40942091944022 2.247180007667063 4.594512223887735
35.85247425134768 -120.40993489665489 12.03973157599709 1.7620618315864973
35.85264695243679 -120.40685647907905 12.652660465620416 2.1094950508267036
35.854121018112764 -120.40680199719361 13.190215538066164 2.600113351135126
35.854113321408505 -120.40548630340923 13.460952141732967 2.597675152156701
35.852152886235935 -120.40704454495366 13.988228045536275 2.01310217924349
35.85361416976073 -120.41038892076669 14.522298178571207 1.4461690074109317
35.855203959151495 -120.40591422027309 15.177325036642317 1.057516186235479
35.85907474542462 -120.4071562618419 0.07494285880912316 2.9682217621838314
35.85703164524497 -120.40621291593865 0.4909625111170227 4.241863554678482
35.8596252723525 -120.40675239170466 0.8916175022325386 5.93329398867009
35.85664082874667 -120.40742451666976 1.7018692395352286 5.267976315971854
35.85563580968242 -120.4071215268101 1.9163956158258715 3.520066534859213
35.85845479404691 -120.40721958547817 12.156821214924252 1.0782407245925325
35.85938766408279 -120.40766290107943 12.334053927551864 1.6145860922350666
35.8570631749274 -120.40698184328494 13.003811423785306 2.547408892104649
35.85828900614917 -120.40703161227806 13.448505461309683 2.4126185988650493
35.855905872545165 -120.40748929310773 13.758667328805277 1.8328905819312198
35.85703315989519 -120.40651728219967 14.3352351069822 1.3863956636848696
35.855806875869796 -120.40797631463867 14.94416764043581 1.0363298163325998
35.862829209552814 -120.40912218101931 -0.08858326955796325 2.8499210408223017
35.86332272985057 -120.40505663375171 0.743393582904798 3.7958998700870437
35.86219686379538 -120.40691348675362 0.7949596768684828 4.68321468830824
35.864129148709175 -120.40551389030902 1.6764763493906827 3.193140098544221
35.859947925376915 -120.40635139571776 1.8636879013747392 1.1405176412264835
35.8614930547429 -120.40804650026764 11.91865317524641 1.3758119444399224
35.86273007682531 -120.40652035166491 12.549378747331223 1.786357716086617
35.861815258311964 -120.40964026341875 12.879826851315768 2.1457977137794306
35.860552361508425 -120.40523339645355 13.584314225499606 1.9880768842444296
35.860441298825236 -120.40662487675826 14.231413384738712 1.6300315248928718
35.8601933468977 -120.40980397294598 14.732373482789313 1.2884872807458243
35.86215656109184 -120.40798332514987 14.797428283612106 0.9887008562465195
35.8654996856479 -120.41021754007369 0.1015959480416272 2.5567060088671703
35.86511313672159 -120.40736924153937 0.5833136707251435 3.129716851461805
35.867067592383805 -120.41008530123796 1.1585960172010357 3.4866727182660338
35.86554428050321 -120.40755692567978 1.391186706993271 2.5101423825630973
35.86563683291629 -120.4061417031584 11.405052322914429 1.2048097849697608
35.86736131889091 -120.4099000761893 12.197864226023366 1.6769756293993003
35.867813844431026 -120.40823759288631 12.740848118468575 1.7706027289840138
35.86669140123343 -120.41006673273719 12.762125527613431 1.761478448062546
35.86816010280951 -120.40799556336782 13.512973875782022 1.6519175639191594
35.86521211399986 -120.40785895874471 14.148310421441991 1.434045476083595
35.86796889973584 -120.40772011170121 14.458353582840187 1.175042239042557
35.86704965181903 -120.40543934873136 15.23973025438984 0.9235221390904671
35.86956797247395 -120.40790147366225 0.05591432050631523 2.1757055803224654
35.87022210068853 -120.40591213020143 0.6104589135637413 2.4310681602200948
35.87170132409905 -120.40543112330934 1.1881695057602073 2.3212975563319813
35.871565843620274 -120.40527052943253 1.3935369002479545 1.3550562292479245
35.870672282800044 -120.40909641835628 11.69267035959596 1.1074134205393924
35.87248988697857 -120.40815418770752 11.936769206458225 1.4058875584527168
35.87143942797437 -120.40498373506956 12.660917062884312 1.5187665020799428
35.87269836769893 -120.40799836406268 12.804182421981743 1.5052015818470286
35.87251750899406 -120.41031751633302 13.724312267868292 1.4051175628401793
35.87010295507589 -120.40678895639118 14.031010627562232 1.2523581376592972
35.87247537622368 -120.40849610561231 14.424123044139725 1.0536132736616304
35.869513720358036 -120.40635168098937 14.990309012397146 0.8450786132879479
35.87589271382724 -120.40611290636701 0.14657954565203796 1.7767072983490628
35.875462320165134 -120.40536516427528 0.4514064774582873 1.8126214958049705
35.87743573708574 -120.41044944074916 0.7787887198242803 1.494698655811264
35.87514813831694 -120.4090979519215 11.827266494725626 0.9951365082577616
35.877719728850124 -120.40720702395049 12.618456788047407 1.1542891274981437
35.876493630773446 -120.40851509807999 12.895960885369822 1.19515395723664
35.87560163912143 -120.40895154178823 13.300879648962221 1.158913597148609
35.87719627006764 -120.40789400363934 13.755179771014527 1.0672552070842654
35.8761847930114 -120.41038021444699 14.290586234089988 0.9208598436819417
35.878255709426256 -120.40777044021434 -0.007736318210634696 1.4005807165744744
35.88107422817898 -120.40636977716491 0.2919101085930537 1.296523394596075
35.881254319796234 -120.40863064854436 1.1058997211554007 0.8905648248189919
35.87863711010814 -120.40745068012562 13.16626010463967 0.878026317242634
35.87805200552401 -120.41023690446121 13.727641066851588 0.9038530564543511
35.87867045124276 -120.40802243352584 14.02447520367993 0.8689264259804533
35.885640054159104 -120.40801939552628 -0.18182690866102852 1.0690690555820603
35.882893634929495 -120.40820285378531 0.27700751530789103 0.8846319576865175
35.82114880476081 -120.40239108571767 0.015210088978487968 0.8787591994293691
35.82352332210858 -120.40182857564307 0.6750462520827922 0.80675408151202
35.82663226935302 -120.40081778335214 -0.1378081284009951 1.1379738762119764
35.82625972709619 -120.40303031896991 0.7419371287991159 1.1337313919844223
35.82805945731343 -120.4042953522858 1.244723480384922 0.9319509146905599
35.82511453290934 -120.40181009964823 13.015118654257002 0.8477627048786713
35.82620844798835 -120.40411756586192 13.351089819718752 0.9634424849768644
35.82807811473372 -120.40325768513209 13.933586858667109 0.9697878511087843
35.826841516426875 -120.40146320061974 14.553614101766431 0.8600053115022135
35.83011676529091 -120.4041823419278 -0.2346175899682168 1.451409069654918
35.83104677092319 -120.40416317345348 0.4411503166315779 1.5657463432105196
35.83199583238245 -120.40487893276332 0.8664032869003194 1.4718513324521785
35.82963952146622 -120.40296204456979 1.6368919679036005 0.9308365033342009
35.82909456695772 -120.40331364376368 12.742273469965594 0.8629975541508733
35.82859375261354 -120.40070440904826 13.201969490271162 1.0973071385948927
35.83092967152685 -120.40309487591149 13.704593345728611 1.212639462348686
35.830099430877375 -120.40226308426146 14.128553030440363 1.1943874627826907
35.831536738492495 -120.40472037603824 14.322649203897395 1.017746959053994
35.82899006135813 -120.40025926505822 15.243659857153224 0.8084381921050258
35.83410413030045 -120.40193385943903 0.17853585668266592 1.8083802573452068
35.835731437112344 -120.40214848590156 0.5284418853756039 2.1049305408527177
35.83519050045063 -120.40445286459611 0.8936799749393697 2.237928829649023
35.83562912957548 -120.4040972522996 1.3801446151219101 1.8012183286257493
35.833075862021936 -120.40064588945586 12.671501167200022 1.265644425783373
35.83651577346043 -120.4022259829262 12.852591556636577 1.419967274024192
35.834356770045176 -120.401839603917 13.625794738218694 1.535418789254396
35.83699879062955 -120.403620150686 14.212306355800852 1.4892127793860783
35.83429505861336 -120.40222354816963 14.5498556795361 1.1885018622135903
35.83340807199186 -120.40273321542433 15.035643774202876 0.9076547740357956
35.840353171616194 -120.4009662833238 0.07249806463835778 2.1827510854548193
35.837762208757745 -120.40417072884289 0.5391628363731553 2.730133962713672
35.83826485419031 -120.40439928330365 1.1620519376185 3.2625103502722093
35.84003331714788 -120.40446022489701 1.6854142836358146 2.9691347931783914
35.83802689806627 -120.40398710542071 12.246084292209941 1.3980975735960675
35.83729567306022 -120.40190317699538 12.565950797156681 1.8846779630075707
35.83927838646977 -120.402789567311 12.772588809016543 1.7970383261217502
35.83737012948695 -120.40097903738355 13.34959382040408 1.9364686742835282
35.837319710295965 -120.39963253652991 14.239510665695693 1.8561757844609694
35.839221021403965 -120.40488683470187 14.38086295109514 1.3431372295285269
35.83788457180964 -120.40000994227874 15.104204845414868 0.9896711353207795
35.843272288470914 -120.40082877333161 0.05334692579113687 2.524308723817097
35.842120485394155 -120.40018617839215 0.5972921929774625 3.373626046658562
35.8462044402077 -120.401001541657 1.2239102666595856 4.416281464911848
35.8435936575042 -120.4048936077518 1.3158823391075618 5.288289818225566
35.8418096359037 -120.4035406069634 2.2283557854470635 3.837674197115918
35.843525913354476 -120.40438218961013 11.801267102446166 2.524153346653555
35.843558679109776 -120.40260506402669 12.526884874755842 2.486638476994887
35.84263793203548 -120.40374717073186 13.050364663286247 2.328016359937712
35.84491408161544 -120.40169007906782 13.306106338148581 2.390610238355997
35.842213103083616 -120.40115789954712 14.040024550589655 2.0814080745034045
35.84244503918303 -120.39986921708815 14.40033676575963 1.4349023333815212
35.845071640830184 -120.40112468751406 14.940643829257576 1.0397052572952317
35.846351469889036 -120.40414598397206 -0.033529424703339084 2.7600628812895596
35.8482906244548 -120.39960548498618 0.43254506843834545 3.900272099834846
35.8496846388028 -120.3997201605617 1.045389907156495 5.321410034977896
35.84834565172456 -120.40134601974157 1.4239865700204684 5.688872505280884
35.847557482433125 -120.4030793773365 1.8519323250868258 4.268672692414152
35.84747821022594 -120.39959647454134 11.837442435075218 2.0882392260700593
35.846861353567945 -120.40482386491702 12.666326969660254 2.176425861640151
35.84940227853889 -120.40298026628695 13.12359958426119 2.748950009179059
35.84691535284015 -120.40255135296843 13.404861434013801 2.6533232727237226
35.85040527970989 -120.40486775838679 14.046078414997393 1.9963865309994617
35.848409887563456 -120.40141555844343 14.519489862674165 1.4380701741312905
35.848133276176235 -120.40259480475774 15.13099252641844 1.0500205340881001
35.85459251769119 -120.40418480721186 -0.11441859086970774 2.816163801384887
35.85213016814453 -120.40441964464331 0.6217192370608898 3.9485818415773637
35.8510573980169 -120.40045383996035 1.0973084060657066 5.333794178845398
35.85517029051463 -120.40326648235724 1.3481464468177466 5.381292791506356
35.852727012495336 -120.40374070337849 2.191478443913859 5.48184908195735
35.851540290695525 -120.40462433710283 2.534425117610847 1.2112233153428527
35.85424575628516 -120.40096142129343 12.164574344841268 1.1896453582151134
35.85444578457084 -120.4025213958517 12.548097595645181 1.5943570078615499
35.85314268502134 -120.40226139738978 12.756050937410416 2.473295189850061
35.85072956941121 -120.40270477208003 13.371960396637862 2.3808495145151576
35.851963275596674 -120.39982908251096 13.852817221186235 1.8148224540958051
35.85380619661892 -120.40067080903013 14.337763933212948 1.3713234189215737
35.85370248892823 -120.40279902920135 14.804143876384225 1.023884781833231
35.85737808412123 -120.40190028907658 0.15532470170060309 2.67071058186316
35.855826195349515 -120.39992061779381 0.3344828969341943 3.4909810650327175
35.85687834218242 -120.40257944122528 0.7850890120292947 4.342562792666778
35.85777816864636 -120.40132679970615 1.4267139804962055 4.133428773896387
35.8578320709461 -120.40145441696676 1.997817479640483 3.559659735785259
35.85546436649353 -120.40179464404477 12.023874461840046 0.8671376371649164
