> GMT_LATLONDEPTH
> out/cube/20240614A/PatchSynth/Synth_AS
35.979866345387 -120.5422914055337 0.5886143665768337 0.09420353067423566
35.97494692877753 -120.53377206588094 0.6072668043461933 0.8583933021976066
35.97612833765554 -120.53447958747066 1.1627490539939882 0.23172574731111947
35.97802090194532 -120.5335469940951 0.381931816385242 0.8823687583818053
35.97689379257885 -120.53396288048081 1.18043564342794 0.19806527737478555
35.97668760063588 -120.5319573338628 0.0009598833319682809 0.5388491099247016
35.97363529162696 -120.52971631205007 0.2832817569341976 1.6416794660478302
35.97403945580802 -120.527963792152 1.157433535960753 0.460023022481408
35.95751630177038 -120.51461722295198 0.7069365801773612 0.8894025867413213
35.958459912697656 -120.51177428466741 0.8099208269454204 0.3592209410757934
35.93268512688096 -120.49891147668463 0.8317144032412611 0.06600307841078887
35.94130664514269 -120.49629396041357 12.385243467004756 0.1709328130622923
35.933938755913694 -120.48924028525857 0.41408049938641167 0.7288734209625487
35.93298049319502 -120.4919200369071 0.9275523020625374 1.3361270325585128
35.93325274817948 -120.49164382833399 12.348989446019097 0.559240252864232
35.92711118861648 -120.48456192867489 1.1833538707434013 1.0945505063029335
35.92445608115285 -120.48570712203029 1.7154502640120477 0.08147847061314295
35.93008513057697 -120.48635305236527 12.542613546378849 0.0746576135303355
35.934096727001375 -120.4832917471217 11.816723029591074 0.7534882557449974
35.93450459109684 -120.48514383547386 12.661736148297884 1.0496701686736856
35.91777756289901 -120.48217631450613 1.0776253325752831 0.03337084368431757
35.92136444361549 -120.47798321613337 0.7726544441075125 1.6246424513421902
35.91988211334227 -120.478745365976 1.266601148724353 2.0606932185790665
35.92525318493731 -120.4812857659179 0.8079114986062758 1.0114871482660754
35.924674897156514 -120.48199594362143 12.72549199210931 0.14647993982403146
35.912370369633706 -120.47376814383152 1.2329587819316057 0.6252708114649352
35.90950471437797 -120.47208670402931 1.3048098222777011 0.4430783940758755
35.915660377806915 -120.47457900922234 0.7601125275800372 1.6060825849245584
35.91379928029823 -120.47625905938729 1.6259757831592356 1.7162051030993792
35.91826877921661 -120.47283463609196 8.240614132229956 0.7901297146025805
35.9194079852203 -120.47343427409974 0.9350698319526498 2.220513321620219
35.921591946821025 -120.47369724141997 1.4436715701267446 3.444437500840872
35.92406087621084 -120.47341290399656 1.0800790840781112 0.14809827080294596
35.90747573040964 -120.46973692736051 0.9482263677155869 1.2118116663510836
35.90747788732426 -120.46619955663469 1.507694335025575 1.056844297591861
35.9121656236295 -120.46919365523216 0.34593568164176064 0.7527752173832101
35.91146971244565 -120.47089121372002 0.8773701345716688 2.6652684189259137
35.91210904012996 -120.46802411629017 1.5313773923158172 2.334991133393011
35.915573225983856 -120.47130786675194 0.47506632110500185 1.0056511801074903
35.91643988933406 -120.46805234077074 1.008719891045726 2.104817524169698
35.91566705633943 -120.46812750390112 1.563047068662165 0.15367819401584032
35.91395989515448 -120.46784886185118 7.751264740409713 1.8566368879646755
35.9169868310033 -120.46957465981271 8.639446677816524 1.1662043555473516
35.91890342254277 -120.4680622610778 0.9150579884004355 0.4779717837659244
35.89674727535619 -120.46132064622314 1.0158104038760665 0.25410323934149326
35.90165216691211 -120.46511383602375 0.3152526271121726 0.6917509501818176
35.9006152831126 -120.46424331563843 0.8328187455306144 2.358753469574703
35.90306301927025 -120.4631527724151 1.5637761806109058 2.0129985311032232
35.90751311095733 -120.46477113060848 0.5468470666736795 0.7554486376612956
35.90830120375417 -120.46382559173541 0.7854930601398454 2.770486751308219
35.90852805026787 -120.46485121360553 1.7034638661881059 2.7189179912913817
35.913774503254054 -120.46490445235787 0.4447241149536551 1.2537731801253527
35.91027453901099 -120.46168513268246 1.178465442763291 2.5833935665967123
35.91367743775643 -120.46519952126013 1.3914594895484573 1.9132121435476646
35.916193737829936 -120.46107068425007 1.0903176015382956 0.33950198004501625
35.89446694939065 -120.45917175267469 0.4563894321999025 0.22997341301500468
35.8918838004358 -120.4575995388509 1.086101448426579 0.8937010835931978
35.89612501835546 -120.45883213978634 0.5947106796598445 0.7134387463740959
35.896112700104766 -120.46056451795124 1.0597508275593355 2.227180761039735
35.89690712655782 -120.45701455278922 1.2931179002061848 1.4609513490954327
35.901195477008244 -120.45853077382206 0.6305956518983501 1.108979580054699
35.90471885583281 -120.46007424066407 1.0348810306960141 3.637928421188799
35.904159117613304 -120.46047016892423 1.283029792505613 3.1815200368540215
35.909249303407755 -120.45531928406241 0.4663676913554013 0.8461012508683753
35.90636467578432 -120.45725821887164 0.8436129979336217 2.308926031096424
35.90563167477293 -120.45905310163015 1.5110785190893847 0.4106360768499622
35.911402877210776 -120.45569411090064 1.1136359366688557 0.3975289763979629
35.88886300727983 -120.45118119974495 0.39259014852229207 0.31786376668798494
35.890038262501825 -120.45273512414016 0.8422006339641843 1.3171558212801313
35.89336014545497 -120.45324188879226 0.47565841957213895 1.3030298655141344
35.89569288600447 -120.45100563369617 0.9152155399351816 2.814244955476477
35.894550762039714 -120.45497449764486 1.5273681979315548 1.0347899809526737
35.89905491049014 -120.45359040041255 0.6394788287774676 1.5071978622403155
35.89702284350672 -120.4546728361288 0.8122516102277795 3.4422455942462884
35.89704753015718 -120.45036926352766 1.5864383214742528 1.5053080867620243
35.90190413575276 -120.45372190120386 0.3839991314357893 0.9336862730767019
35.90409985953805 -120.45195649472781 0.9957361150049426 2.6077010882756824
35.90432419614552 -120.45175707664346 1.2887182232100973 1.3782011282151676
35.90837699538002 -120.45029096169696 1.2127228090313276 0.1432835699275274
35.88296111497788 -120.44521375630964 0.714064042005745 0.536239056156225
35.88440623069848 -120.4494483449013 0.789499690936184 1.7176394358550982
35.88842312369511 -120.44621202606945 0.4075302717246335 1.6712051218559367
35.88719262875991 -120.44764974600845 1.1681977158497603 3.7574900237950537
35.88837091476988 -120.44929847135168 1.3712469644300689 1.8642054759253233
35.893414937227945 -120.44829657661265 -0.20885117693904443 0.0005112856414855398
35.892779643795386 -120.44836475944913 0.36477835420335536 2.1795706003393804
35.89497025586065 -120.44627739535237 1.015185220010228 3.266437976802327
35.894838437465346 -120.44793092900967 1.4515198720463354 0.3765860856244659
35.89499854899567 -120.44461646265052 7.780737368359073 0.5592793122138547
35.896755245343144 -120.44788475231861 0.4853400835624202 0.6437297886673804
35.896270356213705 -120.44472114656486 0.8365487817068762 1.900982168162754
35.897029415398734 -120.44411477790806 1.5190246748219134 0.06921198413245672
35.90090675056817 -120.44654663084324 1.0578355924519567 0.24273816895700465
35.880924539742196 -120.4385178985714 0.4446721935227153 0.6357263161092281
35.879134576461034 -120.44308756593897 0.9359148344875601 2.2334045825257482
35.8795168234017 -120.44275993874848 1.3255898627218268 0.5899569014689362
35.88359826078977 -120.44049971341146 0.42022339253319235 1.6713800928393878
35.88457437892793 -120.44048753420735 1.0446545913850787 3.939868954500604
35.88346749129116 -120.43869106798715 1.4040952730779954 1.336013741579517
35.88308243814995 -120.44068613686461 11.764245897873618 0.22528278346842112
35.89101250497741 -120.44373501020549 0.35180275213826007 1.8877200832230614
35.88806944443361 -120.4389035862274 0.7691191051384911 3.966639744443102
35.88872500833702 -120.44149358798919 1.6988578532416536 1.936822682865069
35.8946910071766 -120.44156548696256 0.49397904622042194 0.8816592281323892
35.89450608848729 -120.44356816296116 1.2130936553782157 1.7873347631544987
35.87293036660427 -120.43447007422351 0.9301324376753258 0.030123912645230993
35.8761598471609 -120.43542789145866 0.49351249406191056 0.6401385520569872
35.8756162762938 -120.43509811062295 0.810811940644402 2.299533451576299
35.87476089095943 -120.43832193960422 1.3167851739558831 0.6493529238207312
35.87534167446572 -120.43396176830448 12.176583708043955 0.0020202758629761677
35.87850383378309 -120.43584601567329 0.4330999220744944 1.5793301862706237
35.879571193306575 -120.43496263635885 0.858642902847233 4.0
35.88083363826372 -120.43369347016974 1.6053375989854395 1.787979194314429
35.88147805841128 -120.43559705156048 12.038467122588754 0.6100823972823874
35.882758577918324 -120.43574440515283 0.655774614199917 1.575258770582639
35.88387850658767 -120.43381365105118 1.1550260851474135 3.46758766308833
35.88269193563339 -120.4357696381518 1.3567508961378196 1.4005778496055912
35.884076055318594 -120.43826695875269 12.213294636514796 0.32132533810082586
35.890427564851166 -120.4353980970474 0.6247694765394549 0.6428078178520513
35.88832056996083 -120.43659445580528 0.8484096039046859 1.6274742520137253
35.86654344830304 -120.42897601527501 1.227161811417538 0.1962793026178887
35.869304885302405 -120.43194968332291 0.5842250327941695 0.6299945634864549
35.86876748238947 -120.43086802115513 1.101155934161973 2.370042559808277
35.870252780315674 -120.43173452904315 1.6018399406053918 0.448547105348861
35.873227176256144 -120.42799026685262 11.769148850051875 0.08609348486952877
35.87500987799866 -120.42791100291097 0.6589884671333364 1.4323876587596922
35.875738825528636 -120.4294184221306 0.9026259422738778 3.7699780991812903
35.87587559403896 -120.43173193539525 1.7415865866582831 2.37139107550705
35.87757828711777 -120.42886071472385 11.714514037547868 0.11452804762499447
35.87651498555469 -120.43267896017319 12.236175656129134 1.1041547419360682
35.880357540282894 -120.42899689277405 0.4416008927164484 1.2162668157943024
35.88099202235414 -120.43088282031943 0.8117953454818825 3.1633382743713785
35.88006367219522 -120.43014083474814 1.5020830492760058 1.6319501989435097
35.88151544582163 -120.4287966948609 12.07894340298915 0.49695230965976805
35.882698099010206 -120.42790598256167 0.5001870155211239 0.31926228968657505
35.883308002807574 -120.43119573517363 0.786898404493064 1.0161364554561942
35.86226019462348 -120.42265239328263 0.837512106409089 0.34865529660403805
35.86532875413308 -120.4217816162343 0.43360867168206585 0.5459733797958166
35.86574130429641 -120.42398547992403 0.8722449130017667 2.221119809583595
35.86870663436315 -120.42362759576845 1.4204903247911835 0.6270489571140989
35.87297788185239 -120.42380764131762 0.5911473206562725 1.2057228394510753
35.869943600626655 -120.42439145673747 1.03252419256567 3.2630823802796014
35.86997964076286 -120.42658299640816 1.639064318512514 1.562767972577641
35.87394004732327 -120.4241800521932 0.27916578330989256 0.8601687778307697
35.87652941658133 -120.42554470223699 1.1339404764785113 2.4962164449980357
35.876799868289616 -120.42586130205065 1.2711987835680907 1.12292149861847
35.87818937236662 -120.42298520744626 0.3326062236290115 0.016825048865478816
35.88125843569703 -120.42484580994451 1.0121021457799437 0.7296928416020415
35.85639104345628 -120.41660371138389 0.9746387157902014 0.4523833847436307
35.860233056141894 -120.41743958188007 0.6691815404481984 0.386222018869363
35.86237090311724 -120.41953447267919 1.1383235230953286 1.7833955266220478
35.86080375221868 -120.41908168710326 1.714476550985856 0.19474600949382734
35.86872518890275 -120.41739775935847 0.6357299918975774 0.913459795709399
35.868475502211226 -120.41802623126551 1.219574200292072 2.9709447694363207
35.86742825180537 -120.4164956088091 1.6523263567934137 0.9772387930120757
35.86974508224597 -120.4215442152114 0.7035110183681044 0.5086086011486791
35.86944408838236 -120.41819572129958 1.2123041284810934 1.9190053909299072
35.872394976739116 -120.41886529340466 1.3390510300732705 0.3405095936469807
35.873965213297986 -120.41955941433105 0.8567340030847326 0.29219527711968285
35.85413730624581 -120.4153794355662 0.8785849972392624 0.3062021998798273
35.85101328427564 -120.4139190258099 1.511466915604394 0.2596850819403004
35.85841153252831 -120.41244702097933 0.3754928985815788 0.2019954938577944
35.858417996481826 -120.41538334755761 1.24615501920506 1.850598988629022
35.85547942934584 -120.41199666984548 1.6328730382932666 1.4255618863459767
35.863343754407154 -120.41097999142269 0.683194447510661 0.5787530562845578
35.86159132238786 -120.4116536737704 0.7934845548680732 1.9714044536883708
35.86834017191777 -120.41458297280842 0.37959383629960036 0.13893867871529517
35.8671156589226 -120.41358073574412 1.2329454743668187 1.2388192223263752
35.84848650237523 -120.4102435958704 0.8792533283843278 0.26620105856092563
35.849130770355075 -120.40526900687296 1.38034403351259 0.437582647678713
35.85502024487769 -120.41028863406336 0.42775997280006195 0.02705163053957938
35.85152045557803 -120.40778381227818 1.135382905320776 1.5602340397387005
35.85357266017234 -120.40858588128125 1.3494200518265715 1.7356829795145319
35.85479058398579 -120.40942091944022 2.247180007667063 0.5945122238877348
35.85703164524497 -120.40621291593865 0.4909625111170227 0.24186355467848186
35.8596252723525 -120.40675239170466 0.8916175022325386 1.9332939886700897
35.85664082874667 -120.40742451666976 1.7018692395352286 1.2679763159718536
35.86219686379538 -120.40691348675362 0.7949596768684828 0.6832146883082404
35.8462044402077 -120.401001541657 1.2239102666595856 0.416281464911848
35.8435936575042 -120.4048936077518 1.3158823391075618 1.2882898182255667
35.8496846388028 -120.3997201605617 1.045389907156495 1.3214100349778966
35.84834565172456 -120.40134601974157 1.4239865700204684 1.6888725052808835
35.847557482433125 -120.4030793773365 1.8519323250868258 0.26867269241415215
35.8510573980169 -120.40045383996035 1.0973084060657066 1.3337941788453982
35.85517029051463 -120.40326648235724 1.3481464468177466 1.3812927915063553
35.852727012495336 -120.40374070337849 2.191478443913859 1.4818490819573493
35.85687834218242 -120.40257944122528 0.7850890120292947 0.3425627926667779
35.85777816864636 -120.40132679970615 1.4267139804962055 0.13342877389638735
35.84034950545805 -120.3964393520319 1.006536902244052 0.5294082372358248
35.84016592792275 -120.39627650702705 1.2831962319969548 0.5407489787474945
35.842046236569416 -120.39422249324241 0.9511243521357766 1.1924311363171407
35.844236846798275 -120.39632127116889 1.6400905254381142 1.8543785817340384
35.84295055015619 -120.39695023013915 1.7801660389723268 0.27524237645651245
35.84790432788119 -120.39734154996975 0.9740935440388401 0.9152552316788488
35.8496109883002 -120.39465585284754 1.7301497443099765 0.905714750784533
35.833292410120144 -120.38869981128659 1.0210321032866845 0.6490823716288493
35.8354147451406 -120.38905750181803 1.5776821255101061 0.6558579840433582
35.840050252144216 -120.39137954643257 1.092155694699371 1.109915280427876
35.837629802277355 -120.39112589102947 1.7299926325437305 1.8556577007637585
35.84293899293053 -120.39211352765956 0.7616144561629294 0.6230620290333532
35.84571849484935 -120.39250036174197 1.6478059341212166 1.5317771004203609
35.84181396050054 -120.3911633118309 2.2022745134672506 1.2797733808766447
35.830834472377134 -120.3856510976459 1.2367921966365774 0.6986675638313683
35.8290139155563 -120.3834518215842 1.735981639451815 0.9434384561587468
35.83452229725051 -120.38314005777808 1.0155871243960917 0.9852246864077885
35.83576995825506 -120.38496634221731 1.624210769721789 0.9339247406575303
35.83895309603899 -120.38519305498839 0.82575590367666 0.3495725712508719
35.84044016956508 -120.386875058347 1.695416111464243 0.8788862702746992
35.8383716588865 -120.38746695774651 1.7985272917065358 0.14872837433241967
35.826886115542116 -120.37882260000069 0.9075859780022855 1.015303391022169
35.823921946049666 -120.38004722676826 1.301737719846713 1.4462965095800018
35.82965293357372 -120.37817854526449 1.1282502372639716 1.006018088878217
35.8287697173698 -120.38183988369387 1.3005900360966203 1.3137383096961768
35.833590489008046 -120.38246391926121 0.9969704525501351 0.2151911320933156
35.8364111813631 -120.38092528573551 1.4329627253882697 0.7220068110176561
35.82307080796639 -120.3748661661566 1.1459152505188943 1.1629079637189945
35.821628614073944 -120.37249449729268 1.4136959824833075 0.7112415308266625
35.82415920578744 -120.37558941574133 0.8670322566764378 1.2721363734189657
35.82770393310862 -120.37525857873872 1.5126016702373724 0.9953037538015991
35.83134374520063 -120.37490071043906 1.1625164467337477 0.0035689955989756847
35.81849488026082 -120.37120201722726 0.9381375078077288 1.0483418345077096
35.81915128988019 -120.36963843838109 1.641472509198464 0.37717382004031774
35.82297973892138 -120.36771067948507 0.9460921229812069 1.0798352728543898
35.822209106427024 -120.36631771658445 1.3432994143705157 0.8362810330652697
35.82749838348515 -120.37003100238431 0.8975769606738628 0.15065477614059727
35.81074700086003 -120.36227439277486 1.0979924606681615 0.8577211015089108
35.81237679706773 -120.36446921862199 1.2752907887011262 0.35507273561791897
35.81708575791924 -120.36206506887926 1.0101996236203439 0.8081213854562717
35.80855618799144 -120.35728887792125 1.0850040470066142 0.5451482481140031
35.810187467993046 -120.35613084602498 0.775584134658312 0.4880914466330498
35.804159747725635 -120.35003356035168 1.0460300882358369 0.17317478253964702
35.80784607279301 -120.35208728124941 1.0658916639910467 0.07903725303079806
35.796463747843994 -120.34549539752602 11.994894956168034 0.18890891931639958
