> GMT_LATLONDEPTH
> out/cube/20240614A/PatchSynth/Synth_AS
35.91814054399009 -120.41056144224055 8.045059456758054 -1.5220371467949583
35.91447700360983 -120.41150399049162 8.630699085304782 -1.3273256505562396
35.9176816453228 -120.41286313120081 8.980451630110142 -1.1279963732598353
35.91624824114748 -120.41550562248108 9.615068821672136 -0.9414259637545258
35.92265680149587 -120.41125819299991 2.138529912651925 -0.8700147719105259
35.92084083265137 -120.4154342132702 2.4220068682874616 -1.1163462390379453
35.920896191485355 -120.41302379111605 2.82769923427391 -1.357505818758792
35.918401069855115 -120.41259327550421 3.4220521113028317 -1.5906561249530389
35.9224460314157 -120.41317664851064 3.9023292055627192 -1.8119530126936059
35.92009358461645 -120.41111110781426 4.324536254195612 -1.9844445686126566
35.921573379801565 -120.41079282512004 5.055965745311343 -2.0752380149813807
35.91831745415036 -120.41267627961601 5.273634963506237 -2.0924200328003044
35.92145342340179 -120.41301692893022 5.908194825611282 -2.0515679997720837
35.92119947601277 -120.41596426630606 6.356912260060022 -1.9635611567585467
35.920651842252674 -120.41304284754042 7.053543960910646 -1.8381130276420967
35.92270158258484 -120.41543416759404 7.677746787220744 -1.685079019487955
35.922648306008945 -120.41551114725449 8.026383424401677 -1.511276002685479
35.9193185783101 -120.4152632081744 8.615752828269063 -1.3148934297022095
35.92253569172982 -120.41151381859706 9.111332405571467 -1.0953899935012914
35.9224032746543 -120.41483625326018 9.472599400850788 -0.8847076488060591
35.92640490229044 -120.4117134924092 1.9030424591903683 -0.8543972057910144
35.92529626245015 -120.41094663732419 2.484240773112012 -1.066316293448563
35.92660012056725 -120.41066342818627 2.8652243206861145 -1.2749471061396402
35.92391774211952 -120.41501302876938 3.5633667755235394 -1.476992033610185
35.92698649215718 -120.41318437398678 4.1958692333516865 -1.6649975324616826
35.923366942649096 -120.41272272419596 4.282384727117533 -1.8117859055395016
35.92392812736609 -120.41573072735221 5.105304436057339 -1.8934743332484192
35.92720955474497 -120.41321647541177 5.507452192002287 -1.912147157052698
35.92625033370816 -120.41302156347341 6.20029834319129 -1.8790391719093709
35.92717497385842 -120.41195736600385 6.656098623012704 -1.8037686075842922
35.924718625955656 -120.4105546249916 6.786503782874726 -1.6946047932266564
35.92458393228217 -120.41583613744582 7.495790997900602 -1.5589424228930935
35.923016010867 -120.41532796896523 8.117015085964791 -1.4013292393320507
35.92693755712115 -120.41588384767259 8.697971814297455 -1.221600006950343
35.92382416165475 -120.41577517671955 9.041130733670938 -1.0238616535522664
35.922976435789224 -120.4129696413462 9.461704741608612 -0.8317646069606419
35.929397039254006 -120.41282655520209 2.177595032027806 -0.8353558886996667
35.92902711781334 -120.41293007166999 2.461280360146474 -1.0186251717021468
35.92857997726355 -120.41283468592792 3.1757055560672476 -1.1974011384084982
35.93111208032284 -120.41278540456983 3.696015328958177 -1.3658108823088182
35.92831884707264 -120.41085580320112 4.171407665999952 -1.5149731710441559
35.92814725913592 -120.41184292520623 4.66575394167855 -1.6293362855182052
35.927957563567325 -120.41509277185001 4.998215107604581 -1.6959517703418971
35.92748059274223 -120.41197510277516 5.663659680174563 -1.713419566109123
35.929637270881685 -120.41457158410181 6.218645700855531 -1.6872153267588883
35.92830071114524 -120.41270896916211 6.482939350945261 -1.624031277309863
35.931106031464076 -120.41552428514586 7.134236756737431 -1.5303566300302784
35.92852776993096 -120.41489176272648 7.276701976224412 -1.4121113947450832
35.931771364026346 -120.41070808582788 7.802687683715561 -1.2737946953415038
35.93112176572608 -120.41521425104922 8.540496757189985 -1.1186395737422163
35.92812806364626 -120.41259610791597 8.994116122309677 -0.9530136845134612
35.93229159373564 -120.4124355501402 2.1016488888615372 -0.8108108562708936
35.933814993737954 -120.41274476439459 2.6352670629257333 -0.9702815253497156
35.93502902671685 -120.41489394783686 2.782124635584068 -1.1241098937042189
35.931966619305726 -120.41186221484043 3.2857646458102927 -1.2659682813680277
35.93254208486444 -120.41352588041784 3.8019312630597115 -1.3880641832349958
35.93220295401739 -120.41275730089255 4.292795890206367 -1.4807839064803332
35.93390677862006 -120.41465912640457 4.893483415754364 -1.5365387832682709
35.933185527413954 -120.41571676546162 5.630652250996715 -1.5533452626249429
35.93319795486914 -120.41240988166444 5.8101115029231 -1.533692564472494
35.93441351551661 -120.41352292269183 6.569101466655899 -1.481947834161611
35.934560824056966 -120.41349363984037 6.8191213879297665 -1.4029923811483778
35.93276126535121 -120.41608023537479 7.574676512010355 -1.3016273649282386
35.933854906565735 -120.4129792296034 7.835313433201871 -1.1821987785804886
35.93515418729936 -120.41375133439203 8.320326156455208 -1.0489979261440296
35.93589735675701 -120.4121606784021 8.875322206366672 -0.9079900593684392
35.93672627040167 -120.41492350178287 2.6955684183574156 -0.919910128929659
35.939116635123874 -120.41127673594046 2.9147893678633476 -1.0536039600395686
35.938638154743806 -120.41142702244584 3.3616535042656936 -1.1755305477542848
35.94018080585822 -120.41081715414632 3.908299828617965 -1.279335232376994
35.93980939044244 -120.4111284728653 4.700265449471453 -1.358347276834169
35.94074998340694 -120.41429192513735 4.853467993785711 -1.407459395589613
35.93795654753064 -120.41131406745009 5.387840794862839 -1.4248054253725042
35.93885010231278 -120.41313227178125 5.861554865405916 -1.4115056540058595
35.93702807869474 -120.41274653685315 6.282886888794982 -1.3704121793065627
35.93711799469741 -120.41485033305071 6.751072430462693 -1.3051321773738918
35.938995855795135 -120.41273505186993 7.264590288373637 -1.219493042891757
35.93853781317932 -120.41060672193316 8.006368588765374 -1.1173277369760928
35.94010959223735 -120.41189906079735 8.297673700320487 -1.0027358649088867
35.93714144026151 -120.41521308778375 9.240299952093956 -0.8807384411394212
35.94371105815218 -120.41099674715998 2.36074515540214 -0.8669043417319082
35.94269861157244 -120.41391134573497 3.167400937155114 -0.9841471079370444
35.94193148496393 -120.41294243960947 3.582934546129442 -1.09057216834338
35.94127896884276 -120.41279772322717 3.915934789676446 -1.181054219265187
35.941771998007304 -120.41080943419875 4.404512552358985 -1.250623820566622
35.945103862741895 -120.41450551345496 5.148665753537316 -1.295514908270741
35.94305576484319 -120.41114443639914 5.576911088421757 -1.3140634041184922
35.94246127550729 -120.41463441887889 6.071300642401247 -1.3066870012064935
35.9440467886661 -120.41189359448495 6.462626751666946 -1.2752348119413872
35.94242624134867 -120.41604067534153 6.992934183479085 -1.2223337251993498
35.94178906140317 -120.41335835196129 7.465101697033742 -1.1509741844915313
35.94348413782608 -120.41079280421792 8.245823111125423 -1.0643585617276166
35.94529917639502 -120.41292699124122 8.562176757750754 -0.9660312140958284
35.94315280240168 -120.41222673950728 8.87939467768812 -0.860111766723682
35.94809370600895 -120.41598334132055 2.618266404991924 -0.8114636580348157
35.949374453993656 -120.41168586724773 3.13188502056566 -0.9149248641133029
35.94602592964036 -120.41208385257153 3.637101534875959 -1.0087635221742395
35.94975669938279 -120.41308772348631 3.830011503565295 -1.0888344026475758
35.946896029152754 -120.41072812320968 4.6546742112825275 -1.1512826347040337
35.94839926332782 -120.41430226837458 4.875769219918498 -1.1931782547654144
35.94578091902864 -120.41473339031998 5.27668959946043 -1.2130421970074248
35.94626741374094 -120.41326321078334 5.908937216334551 -1.210889627961071
35.94576487718677 -120.41058695848194 6.72161810634257 -1.1878796147555004
35.94696569843779 -120.413435584759 6.968736610617191 -1.1458901450721666
35.947448599265876 -120.41173393879156 7.5749887199902695 -1.0872173368313516
35.94618420366057 -120.41189165263884 8.048325542659216 -1.014457312016334
35.947904647922115 -120.41173617929304 8.391834648358106 -0.9305526666738636
35.94830252556942 -120.41303199262492 9.022031536094374 -0.8388528018847958
35.95037690703814 -120.4118891897406 2.771129779622437 -0.8461400174732118
35.94984065448225 -120.41359871010675 3.520470656053393 -0.9294117481131532
35.95031892070678 -120.41452158723827 4.207456925478202 -1.0009224517557276
35.951574399681945 -120.41060626210101 4.602436953828598 -1.057598644568117
35.9513108962294 -120.41351041695434 5.1974432979221845 -1.0970767374018933
35.95006338933154 -120.413232644446 5.533797926327159 -1.1180322439927088
35.95026833304132 -120.41213202066294 6.221204384923051 -1.1202366378305901
35.95047637709318 -120.41288230055923 6.417625105596517 -1.1043665610372244
35.95188297109277 -120.41084103446396 6.8933230932858045 -1.071733215550417
35.95139725638132 -120.41215729046232 7.275967368270583 -1.0240719033928287
35.95061813727477 -120.41600932882422 8.145941730619633 -0.9634475949190766
35.951266907016226 -120.41528539742215 8.665901410150065 -0.8922549139147714
35.952899713289604 -120.41435154669892 9.205664684742999 -0.8132077276420359
35.95650600675416 -120.41376658233331 3.589356286144765 -0.8528270981591934
35.95717486083199 -120.415141701964 3.871841657035079 -0.9170524478402975
35.954875443375855 -120.41176447414742 4.619982564529931 -0.9687988148445448
35.95580024781162 -120.4157337366918 4.815484513660867 -1.0061017999560815
35.95479869633402 -120.41345439002141 5.364932715033758 -1.0277613237712322
35.955919267211556 -120.41521037270549 5.919163039582517 -1.0333984696612317
35.95536136095351 -120.41561714585106 6.660647356045681 -1.0233527766868862
35.95454541244218 -120.41280092600502 7.188395869880664 -0.9985121676259335
35.95540149970259 -120.41305504488777 7.3842688495043864 -0.9601688704763225
35.9565200172314 -120.41134792540208 8.02161118639302 -0.9099450297281185
35.957865019074504 -120.41117025603317 8.588540201690028 -0.8497714653486023
35.96051501806197 -120.41497174225755 4.016166674295475 -0.8376222040795132
35.959472982817886 -120.41150345219432 4.537023444491735 -0.8850116165724471
35.960102357088026 -120.41119292964646 4.8341771627253465 -0.9202217216842447
35.96111977181769 -120.41234419871783 5.590573714467912 -0.9421493555417455
35.96253750316521 -120.41139907943317 6.230858473294147 -0.9503230853175251
35.96292738173377 -120.41482350554014 6.3053459356883605 -0.944849566662827
35.95901143640786 -120.41130330049106 6.833820970555634 -0.9263059507621109
35.96242206070261 -120.41115201383859 7.7432981009450375 -0.8956417896869906
35.960860926294295 -120.41076010905572 7.77499065393494 -0.8541228803915393
35.96067412557943 -120.41167664128287 8.601587053112038 -0.8033050951684795
35.96462021728228 -120.41208076091978 4.330650681102941 -0.8066477035390348
35.967298134098975 -120.41369661526537 5.238545014202153 -0.8397905005953376
35.96482287231559 -120.41495029906524 5.517846971241951 -0.8615759935070169
35.966845506673934 -120.41128353751877 5.925019056758277 -0.8714775679176099
35.96640499529863 -120.41285859180807 6.476152438481075 -0.8694451521929849
35.963416845269975 -120.41135844278963 7.182608661193139 -0.855832835687364
35.96722956329565 -120.41157387094971 7.550766299718495 -0.8313304060098469
35.7906921956977 -120.40717084621232 5.511488954397723 -0.8074431869881591
35.78777715002235 -120.40532312439588 5.999136699588845 -0.8493702295374969
35.789191053987345 -120.40881820568148 6.371784192627186 -0.870286632738068
35.789222367993496 -120.40562539604826 7.234768264614163 -0.8689750786171903
35.790578118940644 -120.40577154983832 7.715533774456904 -0.8456918278770351
35.78852939423357 -120.40993420749246 7.755999190714272 -0.8021610727608827
35.79649186450641 -120.40924154201747 4.392510894078977 -0.8034052943508302
35.79362491365432 -120.40849484526156 4.880174409856423 -0.8886139425739187
35.795389161925584 -120.40786127834336 5.257943561418159 -0.9534650082788008
35.79269610899263 -120.40927725300324 6.0935371614675145 -0.9949139362671082
35.79372317452616 -120.40783581790394 6.618180789732573 -1.0106151875651908
35.79393501829389 -120.40613864542313 6.845016031229511 -0.9996668222252302
35.79618510004775 -120.40568444461303 7.616155815921672 -0.9631394222902242
35.7954118240779 -120.40815779467489 8.151994205468082 -0.9039719473570565
35.79563958114271 -120.40793689032054 8.340345981482187 -0.8262335967492441
35.800937129679575 -120.40703557625447 3.8522444938309337 -0.8739098550928089
35.79727449665105 -120.4082582174841 4.694469258817961 -0.9929133874575665
35.80054728434079 -120.41013071849135 5.197636128960089 -1.088185831669064
35.79817332403857 -120.40770566351105 5.434368452500222 -1.1565111129395877
35.79938290627634 -120.40637107563455 6.008430895080538 -1.194810461710051
35.79788093184307 -120.40920734048687 6.533489724914547 -1.2008092663122107
35.80065661113024 -120.4067345587593 6.879591229841925 -1.1742535362883515
35.79829067342638 -120.4051325709703 7.290220941610049 -1.1176725386311976
35.80079023620313 -120.40621295547857 7.837361872294615 -1.036051686835601
35.80039474331378 -120.408103457496 8.382144150871545 -0.9355145433648488
35.79882671613324 -120.4090573771769 9.079638638305237 -0.82170260069612
35.80179433644987 -120.40639971815806 3.637987963221298 -0.945127825254199
35.80547708110769 -120.40673588644246 3.8815125798812975 -1.1151878286864696
35.80420305971187 -120.40716213007512 4.46806119680294 -1.2553315661158808
35.80367716596566 -120.40924671004844 5.189691567372176 -1.3621567524717744
35.801492923081824 -120.40678026091489 5.606165435287624 -1.43279894318876
35.805359494285035 -120.40507923655083 6.151793599291896 -1.464070552369606
35.80131999754832 -120.40579602827327 6.717489342482268 -1.4537004639700135
35.80343371339308 -120.4083447162095 6.973189643617571 -1.4025121002238894
35.802921210243 -120.40952223343272 7.6368492490477555 -1.3155765866194153
35.80410237140015 -120.40995627403878 8.09610660538678 -1.2013850719160828
35.80452236647713 -120.40992951970128 8.324548799961436 -1.0694474382360097
35.80363661087343 -120.40811509172013 8.955059804670332 -0.9275411048087535
35.80612660728079 -120.40531458246171 2.7690303445431415 -0.9776382954627789
35.80959548070183 -120.40578965507959 3.387474163828907 -1.2254340969915973
35.8096807875008 -120.40499612261443 4.011557377574176 -1.4357217617789773
35.809833331223295 -120.40634621984917 4.44821271507667 -1.6020783963018017
35.80774650972201 -120.40563459774316 5.118129818275976 -1.722421159835626
35.8068553168953 -120.41016478316968 5.501373761442336 -1.7946898277222907
35.809308076291636 -120.4074815756336 5.790000033527953 -1.8150994280349706
35.80958129461008 -120.41035101864748 6.4844275292311595 -1.7805905569788012
35.80607906744525 -120.40710028152127 7.2322969563737365 -1.6931749031811538
35.810042643579926 -120.4077543849816 7.588102569602967 -1.562088804695468
35.80682454133685 -120.4099823220056 7.830667453935519 -1.4019078011882884
35.809046638862355 -120.40664897215055 8.535317668400968 -1.2278172172339754
35.806175239303684 -120.4051614530824 8.80494704465102 -1.0507292001762867
35.80811712852267 -120.4103810913848 9.71448137664323 -0.8748947132217075
35.811797552533235 -120.40550018973798 2.6310218103086 -0.9012099939313033
35.81047310582103 -120.40708761335566 2.804832294309303 -1.256493614430973
35.811956048135336 -120.40740915385045 3.322461961754956 -1.5732325075128335
35.81068760594101 -120.40787722640434 4.248877549150649 -1.8329270900941053
35.81221212054183 -120.40962963982976 4.379426327153071 -2.0304676261161405
35.81088929950931 -120.41021230871067 4.894843429292971 -2.1673042244333
35.81373016023272 -120.40523368264243 5.632422024812676 -2.243267579786606
35.813902268321314 -120.40827679059682 6.029578889059238 -2.252856963984964
35.81340590240438 -120.40621953514028 6.3187789812303725 -2.1895551833538773
35.812878582291056 -120.40875120922642 7.183268163533443 -2.0550125063658746
35.81244557338433 -120.40646329454893 7.379626756608152 -1.864534531780409
35.81221158586605 -120.40620816162306 7.82127121011318 -1.6433171378850742
35.81195414500856 -120.4063100417577 8.736610360912916 -1.4161513720980567
35.811324941650014 -120.40853757359444 9.206281899543418 -1.1981716407956815
35.811816824438544 -120.40830689035128 9.723188026155015 -0.9919963416705992
35.81654628390026 -120.40582154020049 2.486485847922076 -1.1060045864057197
35.81813921990451 -120.41052768319565 3.2163821703877162 -1.5664322179687182
35.816766155755765 -120.40693855722193 3.7361531232988714 -1.9660175801347515
35.817376645049684 -120.40859998733 3.7664315617689503 -2.2822610666796326
35.81745954857301 -120.4056940115313 4.742182428526119 -2.5148804388938855
35.81708317110244 -120.40976331231819 5.097895573412684 -2.6726431939195594
35.81758324700784 -120.40914359056997 5.275953373028801 -2.759603527560967
35.81549952136742 -120.40673419966716 5.958940319079799 -2.767437452518452
35.818097000374266 -120.4093669713213 6.649608989764645 -2.680543849361775
35.81849698496845 -120.40626600022887 6.796635688360648 -2.4944727586766895
35.81515316058972 -120.40662356140402 7.566712410835771 -2.2316578097183224
35.81911560520543 -120.4091712219966 8.039187364455238 -1.9354384580497985
35.81913089138395 -120.40692977472203 8.671417526464053 -1.6467257666976591
35.816353697349825 -120.40607862630279 8.94334271545689 -1.3856806223498637
35.817265034471816 -120.40620647025621 9.67935252136466 -1.1504086762097863
35.81734915615875 -120.40637051487035 9.887330794131183 -0.925804406967974
35.82284813213208 -120.40558442626619 2.71745292584048 -1.285082077120569
35.82113004323489 -120.40681030500188 2.9688848339864977 -1.870491648550424
35.821527916492606 -120.41020610536816 3.6518272414422452 -2.3634413839530057
35.82080391450269 -120.40870407670813 4.102621496102548 -2.74018275929838
35.82310910996872 -120.41015824409155 4.482061642526831 -3.0108940552393273
35.820531444400906 -120.40519061347115 5.1716669854778035 -3.195512406033077
35.82045821981877 -120.40628205719057 5.674026712547488 -3.3057940196583417
35.820723554524264 -120.40938957658548 6.01302354260331 -3.331974601861697
35.82291917381253 -120.40987133844997 6.67931230348921 -3.2414795887579704
35.82091492974998 -120.40744931590572 7.188650568686292 -3.010819031351784
35.82254495281159 -120.40661760974899 7.3023779106259 -2.6675985855224016
35.82288590520755 -120.40717787370755 7.857897912474649 -2.2847597661212253
35.82081917156654 -120.40808673626985 8.66264935059149 -1.9293368323108067
35.82127185308359 -120.40936228535062 8.852327942132444 -1.626117526144661
35.8197983870088 -120.40827067088385 9.587972513905108 -1.364584586482434
35.82183219694965 -120.40892969836861 10.139724320326241 -1.118993656757616
35.82152270014706 -120.40979974031953 10.408354953732225 -0.8580433846635588
35.82731913088399 -120.40815893497445 2.6559383824760205 -1.4064597195176256
35.82798178738517 -120.40958058190552 3.082912448661363 -2.1359025574736634
35.828153834913145 -120.41044496523423 3.4931759656529997 -2.7272927441606396
35.826331120348726 -120.40797470239461 4.0551474786006025 -3.1642601669211734
35.82712240120232 -120.40534694777546 4.514355025286469 -3.476015271375387
35.823997041385745 -120.40699804868977 5.142211943396539 -3.6936949022079033
35.825732945643615 -120.40965489177013 5.38617592542858 -3.839564184660925
35.82639020490748 -120.40793544829117 5.840399586770983 -3.91052786170949
35.82578297632883 -120.41048477579974 6.358248220724235 -3.850156528914238
35.82564651856539 -120.40540197967856 6.815463806126781 -3.5925110422898894
35.82680797441833 -120.40684985508497 7.579667373587885 -3.1625253239427757
35.82418733970932 -120.40556073501224 8.10079239920406 -2.68095687859897
35.82696779704674 -120.40793785978559 8.484981362552057 -2.25651145915577
35.82662013580111 -120.40700685843132 8.94354275149692 -1.9135830465569326
35.82380737292006 -120.40658353635166 9.70388407051538 -1.626758767599777
35.827193771528584 -120.40520787878089 9.849203258619276 -1.3647317625818258
35.824134650737 -120.40964825391362 10.734415587831636 -1.080681500775246
35.83155936360159 -120.40572598679951 2.4736471888567473 -1.4712349365311985
35.831908916836426 -120.4085906850944 3.0570792162448694 -2.3691078795360885
35.828734972796404 -120.40707788890627 3.473690012141679 -3.0540469560944
35.830951466410205 -120.40651158526867 3.750562554886574 -3.539844062917764
35.83120222011746 -120.40842369847394 4.483587409808425 -3.8913642912540642
35.831639819447865 -120.40773538999908 5.229881832265884 -4.1418843821094775
35.82985656797691 -120.40682403179491 5.4631938141026 -4.3229654972871865
35.829258911958114 -120.4059694136129 6.03417058033569 -4.460144216457992
35.82980292357206 -120.4093602734265 6.430644180618875 -4.471016943612307
35.83248367565292 -120.40877611042012 7.108210788746302 -4.202952640453417
35.83210908056617 -120.40679045029151 7.599230391395332 -3.6619462643914265
35.83032396519916 -120.40673781308998 8.193424694567279 -3.056270808555518
35.828997709201786 -120.4084382749544 8.373751562812732 -2.5656642630252895
35.831607401698136 -120.40906257263262 8.842256465009244 -2.193048909057512
35.8287828547221 -120.40832072122188 9.295318124941508 -1.8816044938391927
35.831586009947415 -120.40647149667669 9.891919246900406 -1.615327307229383
35.829276026356716 -120.40852266002281 10.28818325525105 -1.3357922148559238
35.82953600902825 -120.40548809997338 11.001449355048074 -0.9347603823194959
35.83387048831139 -120.40641690187935 2.4893069404362524 -1.6060612569400698
35.83389721722763 -120.40938903580619 2.9330833518096813 -2.7313033232386603
35.83481904654708 -120.40576671251233 3.5138340162280284 -3.4947200316798805
35.83561332184784 -120.40628804964686 4.01621695388371 -3.9969529164393878
35.83629912351615 -120.4095564803123 4.654722116439814 -4.379479022628188
35.83600583300819 -120.40974907065663 4.80137959774979 -4.6454066452352025
35.832981178237326 -120.40799178289404 5.4358457516406276 -4.819793881056244
35.83441794491082 -120.40853617750003 6.235753762477032 -5.0190302929984165
35.834760487954675 -120.40910493685622 6.340886689402053 -5.137272018704797
35.836158443807534 -120.40924477787071 7.163158686400279 -4.819688475572123
35.8350491172713 -120.40961810006942 7.577761917890706 -4.047529011973125
35.834381938770555 -120.4099285959986 8.087531906759596 -3.2345249619482948
35.83682975029799 -120.41013083228013 8.685958037035656 -2.686466712981265
35.83568799199304 -120.40985112807452 9.14012322440555 -2.3141330595380323
35.83472187164849 -120.41009626498247 9.444105067466316 -1.9770918026011497
35.8358479540184 -120.40708635084623 9.948694482699702 -1.7378056304315528
35.83432911705752 -120.40694192779242 10.529965486457646 -1.5470333283403264
35.83651891501339 -120.40714185943901 11.248275178361501 -1.1535888829610506
35.84103880832721 -120.40641349283523 2.424685683827805 -1.8076121580812226
35.8406192252426 -120.40880826968835 3.0822775385741217 -3.3299919396001703
35.84121523132294 -120.40945538630211 3.6799619991869843 -4.180519009022279
35.83993980895708 -120.40800125137645 3.980606758713949 -4.6374472913056115
35.83862768768433 -120.4097498600772 4.374686559403382 -5.0507543320217785
35.8394052394576 -120.40753434414272 4.950358270570403 -5.296379501415299
35.838860891481175 -120.40719256077638 5.301091774494648 -5.353615350073535
35.83881346849536 -120.40733509656468 6.198147832935351 -5.634668729402793
35.839774673273446 -120.4102344099291 6.2898320784092565 -6.080479125567226
35.83796467054297 -120.40829752493612 6.828174917937943 -5.753785975318924
35.84006404813429 -120.40956520958717 7.527603101520286 -4.490516089519756
35.83818529423803 -120.40692654565638 8.184553788500569 -3.2234628242572874
35.83958578350981 -120.40742183869587 8.330915836355363 -2.6081544965437966
35.84038242185438 -120.4077888596997 8.873004176550216 -2.302299133104668
35.83751314368841 -120.40834290418054 9.700629863115013 -1.9063244961634078
35.840303071228576 -120.40770560121139 9.93679629055843 -1.7460179292916278
35.83930738540661 -120.40855531129557 10.308269736130953 -1.8193647254945633
35.83969804642958 -120.40588285952818 11.18018161707699 -1.5228655659602848
35.84311263991527 -120.40938089278947 2.56944006696014 -1.3411977292537527
35.84491707729317 -120.40626489543799 3.024286384160625 -3.3826529603847764
35.84424925729582 -120.40975440645576 3.3991929001005845 -4.123300684227353
35.845667808614884 -120.40633151689362 3.980779975289901 -4.357556882069732
35.843013674607846 -120.40675896711852 4.460176077256475 -4.852237286714701
35.844263893182976 -120.40948354727693 4.983441080547718 -5.022272322424941
35.84182533933663 -120.40783773460618 5.438581208592048 -4.9454670387881
35.84283883189532 -120.40917032793404 6.236893153974323 -5.777559224445373
35.84401723167028 -120.40569163616496 6.268167787310732 -7.6609625986470276
35.84517581298395 -120.4070730554268 6.926100656087387 -7.982470974095479
35.845092630179295 -120.4061602128635 7.656767071661943 -5.855781041046632
35.84298200467217 -120.40615404423691 8.236450457438771 -3.84147145051084
35.84590169563893 -120.40571509905425 8.53986915492768 -3.3903137907921104
35.84314256466943 -120.40777708123204 8.865358700053465 -3.341954718111569
35.84466399114834 -120.40732488678435 9.395777054126267 -2.7577906380229074
35.842345498664535 -120.40651105485688 9.835183300359088 -2.7536806973858603
35.843682953644965 -120.40695266037622 10.477622219112218 -3.1849395468936006
35.84580689667955 -120.40533632256334 11.043093433203525 -2.672262841358336
35.8470704980908 -120.4073734987102 2.2546592390436024 -1.6862131236728408
35.848233466319904 -120.4058630284654 3.153107282592669 -5.358433892227931
35.84916919778146 -120.40713297629846 3.638944195973306 -6.3869005310737
35.846707594407675 -120.40687934994232 4.197391710965507 -5.968938675960807
35.84766629819276 -120.40686437137688 4.599326667530551 -6.594343634714626
35.848470478336885 -120.40748092316626 4.900863981682627 -6.652974529763974
35.84859546706951 -120.40779778081543 5.5849560539283205 -5.907661167465338
35.84872329496611 -120.40997367889698 6.129525661239186 -6.65545678980121
35.85059806001884 -120.40901088551155 6.33881416965302 -9.8283587057752
35.8502452599164 -120.4058686369952 6.9343340938723514 -11.316865459003337
35.84844430290066 -120.41035406640134 7.499981052754729 -8.197123645117564
35.84721651970864 -120.40632533484798 8.003535007104155 -4.339646829985866
35.8504541991759 -120.40501631815684 8.741373333387106 -3.6278019081598853
35.84707567815328 -120.40675263006013 8.875697716026957 -4.152569085084292
35.85067140197012 -120.40910350788742 9.700325583334447 -3.3454279852664133
35.84811532828918 -120.40993278197973 9.936114307387403 -3.559895022932985
35.847943967637136 -120.40933336293006 10.353654590190652 -4.956585145866988
35.85051328793518 -120.40858136102845 11.036548630987369 -5.0325279844394855
35.84917663769829 -120.40602910009447 11.537212620366455 -1.9770129693652654
35.85142646988525 -120.40813970755664 2.9694680648924154 -4.450873539774535
35.85180132993967 -120.40627925208211 3.711418292220615 -3.940332983039648
35.85213093576191 -120.40774797694398 4.233039436856266 -3.6572226138856756
35.8528083889133 -120.40750745116983 4.2558511259149965 -4.811162642716803
35.854905189331504 -120.40742919233834 5.156213825045053 -4.981122499096441
35.854442478625415 -120.40709047785809 5.394584068797778 -4.61541021200551
35.85156421327859 -120.40584359814835 5.829570019769957 -5.71937222931251
35.8537156681749 -120.4097300895393 6.383504962360802 -10.168530688522303
35.85249024375254 -120.40578993964054 6.836310566517424 -13.372659691161534
35.852664189405026 -120.41019012811401 7.351559217284706 -9.18878811472208
35.85443678674445 -120.41046481734823 7.983321011538641 -5.388433434413414
35.85217789005147 -120.41021070025965 8.731731654509577 -6.126706121052678
35.85403421630903 -120.40968452109118 8.947418060513108 -6.14633699393057
35.85514938437654 -120.4084814249445 9.667866462783886 -4.961717925389377
35.85240206325786 -120.40916142264992 9.92166937065064 -5.1887164072448355
35.85284386818737 -120.40768662356476 10.57531891139589 -6.54597247536651
35.85454259187705 -120.41034400087068 10.770639147579326 -6.89666150983631
35.85288036993238 -120.40691560902468 11.498135811144568 -2.494814489598158
35.856616630070086 -120.41009376249669 2.6309191875642455 -2.1121665160038696
35.855464134014554 -120.41040308103737 2.79384859623652 -7.907668231455943
35.855957055177285 -120.41022550145922 3.6575451182212184 -8.768646772139212
35.85528246782175 -120.4089557799146 3.7972865940997047 -9.111449580596847
35.85956801644832 -120.408428223843 4.638297042122684 -9.179818708683449
35.85769005888058 -120.40947064252329 5.014901824288405 -9.341265508435129
35.85612271720782 -120.40719301154074 5.696512729017537 -9.809414670778052
35.8572725745803 -120.40983449461208 5.791091860968276 -11.266034738609312
35.85766241255856 -120.4056130624975 6.68808729068156 -12.681155997976196
35.857513902690656 -120.41038563886578 6.911913861787152 -12.782030966329387
35.85777079011084 -120.40964623397085 7.445456336258195 -7.773176305018317
35.85727109427794 -120.40622751029113 7.958421183932032 -3.1310557295490136
35.857484571151645 -120.40780685243077 8.61286287859593 -2.302677600292013
35.85726719536665 -120.4096251121427 9.070630302563597 -1.6282937136900004
35.85799874015853 -120.4075317284478 9.748574018184627 -1.6709592895807137
35.85844089933986 -120.40740438561392 10.028542278046272 -1.9757158782607345
35.85909845662526 -120.4059952383445 10.658060522047471 -2.623423682743047
35.8584136946896 -120.40809368747993 11.248011168189665 -2.780795684666639
35.861737967336374 -120.40713449809674 2.407105755639377 -3.6137784544609
35.86146816668952 -120.40755293826668 3.232530835429263 -8.697320082330366
35.861418693873524 -120.40749559547913 3.388895583100699 -8.999016702587294
35.86015343148572 -120.40673224435982 4.096344484268554 -8.65082634707618
35.86122777619171 -120.4078955099843 4.30307734422184 -8.532228318394777
35.86108708480675 -120.40954673219258 5.083642478847367 -9.037455661788973
35.860892727402195 -120.40699202724053 5.354034428843441 -9.991455888192819
35.86104202751988 -120.40716787649306 5.890326920941563 -11.114639270734711
35.86022218431278 -120.40769836850902 6.538191705380322 -10.784569453150887
35.86128838626126 -120.40909522423442 6.789526216987053 -9.725325632928174
35.86405857340689 -120.40539156331845 7.611546077894575 -5.502139223948127
35.8639647763629 -120.40821930115865 7.813249176184399 -0.9771793406542459
35.86198417053105 -120.406152474625 9.033889427430989 -1.0138881757995553
35.86041487020364 -120.40798885594805 9.699224361259358 -1.2928449168697471
35.863651739743226 -120.40620788829187 10.18432501440946 -1.2237804115627466
35.863319157125034 -120.40863489154722 10.459024457928626 -1.05709346441872
35.864240930108004 -120.40774063923885 2.3378123723845436 -2.8411121480015895
35.86826587984172 -120.40499467447587 3.075398002473185 -6.286641562133971
35.86805263952628 -120.40631425266697 3.3097780552301117 -7.183094211691796
35.86671761012759 -120.40581504554899 4.160691099407597 -7.29923070431111
35.86468750058395 -120.40503321617545 4.46469146140566 -7.399018786697442
35.866856345827195 -120.40522033737693 5.002255199007165 -7.77542980060322
35.867526220017965 -120.40667683497752 5.504042848786765 -8.423620379532396
35.86633679179272 -120.40596173651704 5.849108526088148 -9.10867063345092
35.86851029852374 -120.40646062714596 6.457244611504999 -8.782201451579047
35.86754734933843 -120.4065669693271 7.034978286085238 -7.4271327256741975
35.86568996926889 -120.41036060370269 7.442605327794748 -4.1519735648917555
35.86688921560118 -120.40672451408444 8.100409798069434 -0.8865374530655361
35.871944127285566 -120.40969638913583 2.3810859564454074 -2.727642673591809
35.87177039797611 -120.40922513129989 3.216670055868307 -4.772454800041851
35.86961255861888 -120.40870235614281 3.31608273549456 -5.724382072297157
35.868815683404996 -120.40581569893547 4.232352214291201 -6.123140463293004
35.87103374722758 -120.4059118387892 4.392259759295847 -6.3816517262693075
35.87215084462746 -120.40664123984577 4.956050363802317 -6.723687181504495
35.8698312596394 -120.41011833922128 5.521903991841481 -7.172014763528721
35.872554554830835 -120.40694045240635 5.861613131162885 -7.439267772229015
35.87310107885501 -120.40999505957296 6.638677310434575 -6.915445658118242
35.87026059020187 -120.4079778630006 7.108368789043507 -5.514937347545026
35.868822182835 -120.40837547278743 7.569400156794066 -3.384879870097705
35.873058134537246 -120.40856681124517 7.921743072519445 -1.4722024767612016
35.877028593964695 -120.40701957492814 1.778515175780968 -0.8716239006698165
35.875357353852536 -120.40671018531087 2.5507734225098266 -2.608127680061685
35.87709592864001 -120.4084768671645 3.240791631495901 -4.1171625379316605
35.87362102925208 -120.4069490512497 3.6853005220933666 -5.047605593785889
35.87762021757001 -120.40991660067023 3.89406096250353 -5.5500337660217935
35.87417244836201 -120.40599653871459 4.5601710689060475 -5.8975419545599825
35.8775821821487 -120.40681739374469 5.203785790994041 -6.254882203476891
35.8749800405199 -120.40909553920916 5.713054940759 -6.60403565329108
35.8775009337636 -120.40661194380802 5.953667129070509 -6.7037000769869834
35.874048641051075 -120.40751407497936 6.27370234777488 -6.2232836550162824
35.875415170934886 -120.40958555632965 7.1304812746141275 -5.11142375133899
35.875370234450834 -120.40615554558346 7.739705751123443 -3.6214864902193984
35.87445732893491 -120.40857705672761 7.79277550434762 -2.273625546181936
35.87553361381278 -120.4101247435164 8.480685046309752 -1.4571674299571071
35.87751393996347 -120.40649041342107 8.894666530812136 -1.061421623836593
35.876656251749665 -120.40516830101741 9.349200061581362 -0.826687304479403
35.879615281325655 -120.40604384654526 2.1731903623239464 -1.1207027781198788
35.87838861288209 -120.41018444500364 2.6080910078654616 -2.448630702316099
35.87971572640232 -120.40855277346621 3.2301718882623445 -3.6079755745286866
35.881899239500704 -120.41045473918224 3.6768644301540636 -4.423673533276929
35.87921469555554 -120.40657102685275 3.923063464156113 -4.955519066563796
35.88117038666513 -120.40749867476282 4.432015983683651 -5.34169229369712
35.8791821094112 -120.40651664258901 4.96595746540862 -5.664389621267147
35.88186277878356 -120.40756915021787 5.694547690120196 -5.897871903597696
35.879328862329075 -120.40698627240039 5.97964130729141 -5.890889220687722
35.87988717989909 -120.41031087720272 6.503894816734417 -5.474930449534828
35.87944497869811 -120.41008428282387 6.921985455402407 -4.64195558183937
35.881616438460064 -120.4098332528676 7.739688927655926 -3.5893981907757833
35.87928568870887 -120.40775303504886 8.043884558507585 -2.6261151620891825
35.87822446653011 -120.40908464907218 8.515314399055985 -1.9532284669371476
35.8782840978779 -120.41023343633809 9.193372072910062 -1.53223504331161
35.88073739773287 -120.40665271642254 9.314333057751039 -1.2255414229496413
35.88092368853741 -120.4083393539731 10.183445777132366 -0.9169196872633902
35.88403135648441 -120.40918191213616 2.0260323469148354 -1.2331759843788077
35.88280195477382 -120.40748510437875 2.6616330493144362 -2.281367893464892
35.88337417011318 -120.40953571855147 2.908916113499104 -3.2175340750413444
35.88335856564444 -120.41006526217888 3.415461051266034 -3.9460624922870013
35.88550249294502 -120.40522616905962 4.0203947763656265 -4.507662479420602
35.88626817566517 -120.40800860147563 4.4266653095669 -4.923335700775489
35.88401936435088 -120.40551258428525 4.901553772823908 -5.189929763548224
35.88363953419538 -120.40604205703423 5.568602583977225 -5.315537581031521
35.88589676211301 -120.40500613582844 6.167091835568731 -5.234121000857541
35.885458022545784 -120.40509334093902 6.373456948379487 -4.8695005963337525
35.88381545286162 -120.40777063211412 6.938382078799709 -4.235849268732912
35.88378874252418 -120.40618739923525 7.5616630090544135 -3.4653350650853865
35.882538281352176 -120.40904968421503 8.059184651107167 -2.7417483870385375
35.88500056434161 -120.40586310760966 8.447302075993504 -2.1712951841942103
35.88420638147042 -120.40948222366524 8.915025011702758 -1.7209962415554714
35.88324162937109 -120.40883498868116 9.656436314542809 -1.36257218421721
35.88532387587364 -120.40898552882187 9.994062380533732 -1.0648320399132225
35.88930575274658 -120.40657987254447 1.8141867823820939 -1.252601957382113
35.888416213408554 -120.40710257686573 2.4041509901889433 -2.0941292793306547
35.89115148553199 -120.40628749172444 2.799798592460987 -2.860120580607664
35.88868448861088 -120.40498747311202 3.5114438861800807 -3.4938009913399197
35.89103074130708 -120.40552667577435 4.201580595573361 -4.06071911012531
35.888489490179175 -120.40693181915955 4.7310169380243705 -4.48701260217178
35.8880555338428 -120.40907522184419 4.8247038655733 -4.693281436768676
35.88733889318715 -120.40911397850044 5.353506810974256 -4.7455178570326035
35.88767741217522 -120.41003580960965 5.795203572914187 -4.628065015115299
35.88692191626683 -120.407398784586 6.449129709586035 -4.311527451306222
35.886970279158966 -120.4071654565663 7.207053461890746 -3.8184424352664537
35.88914249433126 -120.40870195534185 7.56308312455528 -3.2372105310522574
35.888430762066626 -120.40647183680993 8.062630065399464 -2.6819043296348375
35.88948207664358 -120.40926453877515 8.26557933492297 -2.209281017796675
35.88896093026472 -120.40966424040711 8.801182818947996 -1.7510533435109483
35.88883848953163 -120.41018758960094 9.564072633355169 -1.369277756997949
35.887097983774844 -120.40981336858205 9.946311863949163 -1.1122437326094694
35.88740724824696 -120.40581336717189 10.33651517087804 -0.8627628086886232
35.89271845197039 -120.40801373512089 1.7793463597650765 -1.202125502457495
35.893912030312414 -120.40938605730184 2.4232926040306033 -1.878113809540315
35.89316328643938 -120.40520318152456 3.016707245615916 -2.49754207970087
35.89350501924707 -120.40613413386488 3.6667043041823835 -3.00033673354657
35.894576941658165 -120.4074868240621 3.811647746659086 -3.3807977896251247
35.893369957993826 -120.40742637100419 4.656632114242949 -3.6358649606801445
35.894817578873344 -120.40987308308307 4.775444841788427 -3.765133044406158
35.89339549408274 -120.40997330251467 5.449714344353163 -3.7781810930050943
35.895547493052696 -120.40510160550464 5.966341475269113 -3.6590706596672113
35.89366082433068 -120.40762069603205 6.277970698796347 -3.3975995718199044
35.89259341254574 -120.40989303820736 6.812327303401406 -3.0166295590257297
35.89303529389107 -120.40552128273104 7.4353358697067655 -2.57670347258128
35.89359658759479 -120.4072674091809 8.226983896759197 -2.1545074678459897
35.893139827707465 -120.41016105413522 8.739101677349417 -1.8045873140655821
35.894800393541864 -120.4100801942268 8.803601336987896 -1.5271514151115124
35.89409780471557 -120.40535136396646 9.604763794590498 -1.3090537386208678
35.895103431311306 -120.41039065550133 9.835406421679036 -1.1219140434161052
35.89363279080408 -120.40738526458742 10.538298030184688 -0.9219121035484625
35.89881335649618 -120.40909422253094 1.7978267306424427 -1.116145611340332
35.89768251926454 -120.41017772248446 2.564226554712052 -1.6582244331063658
35.89799464722249 -120.40536535735892 3.0435253780054388 -2.1596007633649714
35.89707679535496 -120.41039000045363 3.6748377980432076 -2.5710514292763924
35.89892136530599 -120.406630223887 4.140662352430906 -2.870959561575319
35.896872561964756 -120.40825625884831 4.569655837032426 -3.065764277953097
35.89982984101247 -120.40714227928699 5.054884493689123 -3.1670691212947264
35.89764924846694 -120.40565561344505 5.447233470239924 -3.1726592812798025
35.89824132482499 -120.40722270152578 6.032326943180972 -3.073937673710788
35.89689767844325 -120.40628633751686 6.44095928101784 -2.8707423125396874
35.89857937860044 -120.40995196007174 6.8386872317151495 -2.5830470689991776
35.89672340642523 -120.40808429194074 7.322149037899504 -2.2522244617789267
35.89761222716442 -120.40672635868472 7.812373225596559 -1.929174743517124
35.897410388243564 -120.40838590106351 8.668614114054133 -1.6548591677510098
35.89605799231474 -120.40962545357087 9.135140881046828 -1.4425630238144145
35.89766568049528 -120.4057034309678 9.357819371062444 -1.2718897166711085
35.89876980959301 -120.40592653920264 9.848674549519504 -1.1100061382912958
35.89869264492396 -120.40633152828632 10.266792948482474 -0.9357667588104212
35.90166128544933 -120.40990068577136 1.7553748365865656 -1.0269083150371978
35.90185243710984 -120.40940501239672 2.6975700376799963 -1.4632384854012987
35.902730923527145 -120.4094634026427 2.823293174081417 -1.8718348601687287
35.90347324798519 -120.40556655022733 3.557924695103831 -2.217865410820597
35.90214999961979 -120.40635087910357 4.202609044566886 -2.482611719444924
35.902599843554015 -120.40655870281789 4.565188418297975 -2.6616160804447686
35.90362509116891 -120.40781950758772 4.948157992756011 -2.756232988021678
35.90451493945646 -120.40902829496738 5.259106558883684 -2.7667238550630824
35.903981461728485 -120.40880047876149 6.100181120152001 -2.692645799222688
35.901112977349406 -120.40521983785166 6.357544187200514 -2.5389928468937204
35.90162815587933 -120.40538373329936 7.246558703705398 -2.3221642853048503
35.90140332264236 -120.40572985828202 7.286377855457158 -2.0703378966313397
35.90327611072842 -120.40825926170943 8.1452460346337 -1.8164624101560247
35.90181833658731 -120.40799610373689 8.514283482947597 -1.5867765928885142
35.90282800802111 -120.40750721543475 9.10622525750511 -1.391373199017068
35.90199778546865 -120.407691585773 9.431516322607495 -1.2231125278958253
35.903976590932956 -120.4100022150179 9.914057449825776 -1.0655243660314115
35.90060254920126 -120.40531913556593 10.650482784536333 -0.9035675005540454
35.907649487427214 -120.4077150332682 1.8093804464327572 -0.9523341574234762
35.90839358871966 -120.40706536154876 2.3428466248739133 -1.3070398153221343
35.904834604944604 -120.40963143815209 3.2297782590545467 -1.6423295845268027
35.905150950914084 -120.40674240133907 3.3473214561631357 -1.9325467702198007
35.90734575837317 -120.40885771389091 3.8413254066499514 -2.1611899309837956
35.905766921602925 -120.40735906510233 4.588311252724374 -2.3203200386538527
35.90900151478013 -120.40503577548336 4.945785341787324 -2.407456128346574
35.908035351048134 -120.4059499565463 5.278117119949906 -2.4228075413695382
35.90824321608109 -120.40569432242818 6.0766790193892035 -2.368642649624666
35.906850350235366 -120.4094817001636 6.5792670799249215 -2.2513609612533747
35.906248160066276 -120.40818338329233 6.971371653844722 -2.084032153578361
35.90537146798509 -120.40859543257157 7.645644119321185 -1.886244393602138
35.90666523670062 -120.40635765837506 7.937266013261402 -1.6799688886720539
35.90831026904479 -120.4055312022997 8.335286084655452 -1.4830676467148722
35.909171333163854 -120.40796124445521 8.912103179547378 -1.3042351805721117
35.908816195034866 -120.4101587307184 9.618539927854167 -1.1422675786436134
35.906001228455324 -120.40920887854668 9.851854422564381 -0.9893021199323583
35.90553580066908 -120.40729968941875 10.440066792875879 -0.836292582564967
35.911910041673046 -120.40605837405307 2.2397390610140127 -0.897005691552233
35.90942066410286 -120.40963633743368 2.325090202017225 -1.190021295550121
35.91307810517224 -120.40672979702688 2.910226800509534 -1.469520850451981
35.909529938792005 -120.40668519253613 3.5028093794612065 -1.716683244032751
35.91013064335818 -120.40757367536085 4.244532948733063 -1.9172525338938293
35.910035559452666 -120.40604827027097 4.727736900065079 -2.061029524201918
35.9114560040581 -120.4091682981153 4.839264660513935 -2.1425231054083267
35.90957058093208 -120.4073490679933 5.3905863818208735 -2.1614353376827946
35.9102091715919 -120.41053315715038 5.828318595681013 -2.121207123667534
35.910904633582625 -120.41052521179921 6.721942761742799 -2.028501595694261
35.90986539525678 -120.40709871304713 6.980741264891056 -1.893845432879437
35.9126233937124 -120.40524718676029 7.328868049763225 -1.7312239243870648
35.910393189848556 -120.4091885263148 8.209868343739023 -1.5555446594367959
35.91114535511934 -120.40918102781072 8.256479892087476 -1.3790967843323922
35.91004426747516 -120.41028175056188 9.115099440560314 -1.2096200587928032
35.91065439367689 -120.40689051054268 9.34775243648308 -1.05042522966623
35.91000565858269 -120.40717576746007 9.774483032279973 -0.9001518160173436
35.91555851361694 -120.40773255012442 1.820080107054704 -0.8577877908622537
35.91700149158739 -120.41033622383479 2.314326213847162 -1.104725035389996
35.91401556253856 -120.4067385906701 2.779487877689819 -1.3435761239987571
35.91625553182241 -120.40832994464033 3.7284683414841635 -1.5618416991921071
35.91451198554061 -120.40863395879374 3.8260388310317035 -1.747428222063985
35.91625489433312 -120.40542460444874 4.3545915851384205 -1.8859959552904444
35.91807866120397 -120.40893120556746 5.20106504575817 -1.9670907286911898
35.91731902691572 -120.40978180430436 5.633958568076686 -1.9899548061251233
35.91495355151189 -120.40956079046299 5.975140961820859 -1.9596977995708136
35.91491435548089 -120.41006057393271 6.280336726280788 -1.883555278684004
35.91485600381248 -120.40986469483158 7.017112112385717 -1.7703830258307758
35.91695806578125 -120.40863886720987 7.524554272412652 -1.6302523571606464
35.91437930329379 -120.40953271058034 7.868118168603964 -1.4727150752721139
35.916571646287665 -120.41049776837494 8.550573895062467 -1.3051392230694248
35.91390501672903 -120.40667440964143 8.900886122142674 -1.1345049813307344
35.91620217887845 -120.4052295497258 9.533194630908746 -0.9700894246452443
35.91494914008894 -120.40579309070553 10.104808863844193 -0.8178804420686004
35.92109512328493 -120.40992389546501 1.9548283374557376 -0.8285220138519848
35.92020697795955 -120.40529693448859 2.7053196683092477 -1.0401768870518895
35.9191354805585 -120.40608334461356 3.2195415111140604 -1.24782904348937
35.92158425851472 -120.40793269093217 3.4023821037506043 -1.4435922048806291
35.91944220898011 -120.40742221877818 4.086815871043367 -1.617005930389121
35.92236605980169 -120.40770231709446 4.5650268826227824 -1.75100404814602
35.92273079606356 -120.405815130003 5.118054477193251 -1.8316561873133257
35.92250918600849 -120.4085983872647 5.744199806989762 -1.8575664901779834
35.92167190405698 -120.4090907832635 6.243024610932765 -1.834716069121614
35.920375833539175 -120.40907810912707 6.451178239677747 -1.7705542921037563
35.92163479386495 -120.41031131884188 7.245117584258893 -1.6726760613810727
35.919488566177044 -120.40923375907208 7.4494377780301635 -1.5484123804164716
35.919080830332064 -120.40714024236587 7.92037395561564 -1.403623146138682
35.91895254494879 -120.40886512087465 8.672873351609054 -1.2423752519590638
35.92173934817926 -120.41001062311145 8.849785430103404 -1.071306200695338
35.91855282295045 -120.40887796377486 9.655304147463111 -0.9038141564267692
35.92600851414488 -120.40670890751211 1.8329057659034893 -0.8031523228351399
35.925467862286204 -120.40772850543192 2.511170673246458 -0.9860887095313924
35.92718193907028 -120.41002072553935 3.0577467553347555 -1.166189869895732
35.922847321894366 -120.40703617717863 3.6605811535927915 -1.337102975204882
35.92704753841217 -120.40823888506783 3.865972591196476 -1.489417023807525
35.92491582210121 -120.40903966972536 4.731629941040768 -1.6084160795919433
35.92327409503615 -120.4100020273181 4.830235156061531 -1.6818787176767789
35.92496049684293 -120.4057855590984 5.272136079200114 -1.7075624853677418
35.925215540593015 -120.40787181281421 6.098827893209755 -1.6899941711118205
35.923734878096056 -120.40927573966813 6.311056294143194 -1.6354562023545234
