> GMT_LATLONDEPTH
> out/cube/20240614A/PatchSynth/Synth_AS
36.008713198467674 -120.49946590329313 8.135168051380111 -1.3205579396981026
36.01001706599149 -120.49765967150545 8.604049465984447 -1.2299246691633088
36.0143001562546 -120.50227360823936 3.232822056380723 -1.0906713672866915
36.01216768738883 -120.49865599567639 3.741262367942305 -1.2085198288773975
36.0119204933769 -120.50195203806652 3.7846415853345534 -1.3078512989530244
36.014141322713904 -120.4997504852516 4.5113063375356575 -1.3840914733927578
36.01409084865993 -120.49965046613569 4.9604164743837815 -1.4343319026889463
36.01311540460871 -120.50198016417829 5.597677851982439 -1.458503096515131
36.01145425678332 -120.49890276464777 5.938134341516368 -1.4586294340738126
36.01118219085818 -120.49952029100962 6.367267276538754 -1.437429981478797
36.013770180939716 -120.49850078992641 6.855542480405563 -1.3975444770515169
36.01445844615708 -120.49857970648108 7.253396946493739 -1.3412330555326182
36.01397831785912 -120.4972854761549 7.998716243790768 -1.2702597903346597
36.012587958023836 -120.50042667641736 8.380970852194025 -1.1861390336665265
36.01641557855466 -120.49754265127511 3.6832345449701314 -1.1074581420856813
36.015480568664074 -120.49771783241368 3.754343775781514 -1.1938143783194548
36.01802249481124 -120.49877234051806 4.508864129175979 -1.2614593930968885
36.01889755532845 -120.50145572828397 5.075786408430594 -1.3078581559186035
36.01889822025654 -120.50193781428744 5.52705570757952 -1.3326023261906177
36.01615649552864 -120.50149960093508 6.087793198650616 -1.3369278590593179
36.01649340508493 -120.50046352612743 6.674440212410306 -1.3226825372903301
36.018939685758184 -120.5022719506357 6.8938047268002505 -1.2916553501525259
36.01896350608997 -120.50079847956206 7.2827747292407725 -1.2453149461384367
36.0155228729308 -120.4995624651832 8.20559360968688 -1.1848149508019183
36.020691377491545 -120.4982411974371 3.471995828473595 -1.0056001316995467
36.022153297054146 -120.4981763710897 3.9774203043996232 -1.078272265415524
36.020795141641536 -120.49862571494691 4.464460066969426 -1.1356998534791198
36.019688212706896 -120.49821365524699 5.18788348704599 -1.1761240970549514
36.02149295808345 -120.50098717839046 5.6364997170723665 -1.1990788481474441
36.01996908189945 -120.50171878405934 6.0971952531130205 -1.2051693569513093
36.02113418393645 -120.49791913256345 6.619514498305047 -1.1954997359408572
36.02009908936426 -120.50170369315806 7.017229781048073 -1.1712105336491014
36.02273315017867 -120.49744370677597 7.479023807549881 -1.1332802359175842
36.02543385955798 -120.49772732637332 3.972494799549575 -0.9670077794457423
36.024624432663664 -120.500850969448 4.5211439858665 -1.0148850864318515
36.02645662251681 -120.5001407351924 4.871368615123071 -1.0490258767752123
36.02666823771517 -120.49761841830677 5.624124029505466 -1.0690395115558151
36.02575708102039 -120.50228595794076 6.083367412227917 -1.0752010030967905
36.02650746197302 -120.50003970627536 6.28941367550614 -1.0681434532656322
36.02666789850975 -120.50274249065961 6.833633953233062 -1.0485797369849965
36.025813426742175 -120.49825720004834 7.671851293574385 -1.0171742517063393
36.03273440579424 -120.49944664040427 4.100936284323225 -0.8620417532182948
36.032431429488625 -120.49916204333245 4.402818529516392 -0.9015714924248095
36.03054088703868 -120.50270410753049 5.050780760287648 -0.9298176626479722
36.03259080135258 -120.49958576957191 5.254623406807041 -0.9464844966456166
36.03126971447688 -120.5007539417935 6.071259419609196 -0.9516994301625163
36.03014028896691 -120.50210330818939 6.4527045769334475 -0.945837636264766
36.03046353581873 -120.49925859542032 7.198450023059848 -0.9293595741172593
36.033147734068564 -120.50051927234603 4.99064141929678 -0.8193499330808467
36.036170838577554 -120.49982936789145 5.691184604461888 -0.8326954416406265
36.03636959063045 -120.50217486735086 6.192627907905154 -0.8364697212346494
36.036802601345535 -120.49915376102285 6.686654049560779 -0.8309177795540736
35.88752770119349 -120.49184534146237 1.7512412527111691 -1.0985789289120236
35.88957847463543 -120.4955677045699 2.1758755077166514 -0.8692229297360438
35.889292736951475 -120.49684201682402 2.3809491709500485 -1.3249708139201357
35.888934908860605 -120.49380335649964 3.190213582651272 -1.770440065625679
35.897661417872 -120.49466301054507 1.9936848299879655 -1.1596342572771796
35.8948517026523 -120.49225083475021 2.3826960801273844 -1.7133709139020539
35.89513802126421 -120.49227682161327 2.9940066504863774 -2.231048123569161
35.89614190118406 -120.49462993284669 3.539149622532712 -2.677532269774944
35.89631355157213 -120.49433778800511 3.8307719171982115 -3.0403595626936752
35.899580577323775 -120.49332213480078 2.0282019599865033 -1.402262862445437
35.901492395947756 -120.49676491134885 2.5359440239036233 -2.107433952983993
35.90125622090558 -120.49389610950618 3.1328154938753023 -2.750339018799475
35.90091702918407 -120.49585751988928 3.636346220418624 -3.279069171101184
35.900993148472935 -120.49603667743945 4.041374621249364 -3.683776646196997
35.89897984250319 -120.49593519748001 4.532543443129141 -3.9722243987047268
35.898335098946724 -120.4943505139332 5.210042866245791 -4.146937663545782
35.90249559376689 -120.49328259776127 2.0700902262116685 -1.627987113751435
35.90311955552104 -120.49563291312082 2.319012244097232 -2.5459998313811205
35.905392722834165 -120.49312048860206 2.777933138122552 -3.3593831048489995
35.90259549864148 -120.49703022735812 3.337319452398697 -3.988201058099091
35.90398366065596 -120.49197551069346 3.806280690040871 -4.431201109418086
35.90304289657788 -120.49434299523863 4.542753177536158 -4.724313239317697
35.90328534028246 -120.49665110379782 4.816798263872565 -4.890821805545188
35.90373554178161 -120.49623403914778 5.519778719899571 -4.912010718288635
35.90946620578238 -120.49266995539091 2.1506404206089784 -1.8371151706105675
35.91101724780174 -120.49678817019642 2.5771848338741004 -3.043531872875009
35.9111555233414 -120.4939985178303 2.810940454795638 -4.070002355356074
35.9089380493562 -120.49612628825963 3.455858945213403 -4.79703640190792
35.91097189148268 -120.4936173163428 3.8830235236863815 -5.25336924894699
35.90965260177412 -120.49611441010217 4.646383037317981 -5.5310252625066925
35.90999635320563 -120.49533140818629 4.825846885308075 -5.693174647134542
35.907491200601186 -120.49351809907488 5.634196434035833 -5.720877225053202
35.908265391925404 -120.49251915892607 6.142521555019857 -5.509655268875864
35.90899437630226 -120.49578292303907 6.297624563552846 -4.952480753626849
35.91183303874172 -120.49554072318759 2.07107914091538 -1.9414707495893313
35.91453805633203 -120.49663797270803 2.7339739337006694 -3.5276764791249633
35.91505788617603 -120.4954308388735 3.060854382082481 -4.809790609518845
35.91436862004055 -120.49275461779973 3.5531395779608843 -5.609630168892409
35.912713481244936 -120.49241712561748 3.8588135962725225 -6.0270830845634755
35.91374378150116 -120.49511785081096 4.700141287615506 -6.255884064565416
35.91464781774088 -120.49276848099903 5.119586457677172 -6.430894129816906
35.91439114994916 -120.49596560859757 5.251840764207799 -6.548182502114318
35.91328068370023 -120.4941665377095 5.9920066415250774 -6.426659061647913
35.912759654884816 -120.4969921330302 6.589539799917692 -5.836492222834091
35.91134627937038 -120.49554286670926 7.237662832795025 -4.729745914318381
35.91443312534847 -120.49524164240125 7.643864815901825 -3.368183454098638
35.91839701232966 -120.49514719263986 2.052312703514122 -1.7305622811878778
35.91979130114546 -120.49263162884588 2.43321971819629 -3.778100081971191
35.91770418568474 -120.4946663881319 3.2067256836861966 -5.335547928859324
35.917741073876876 -120.4962792243453 3.658704751818804 -6.1297475239606385
35.9162005773795 -120.49403546932152 4.033619280383937 -6.409842363247763
35.91975129337029 -120.49378537159748 4.747073657317391 -6.529675293061807
35.91639294437565 -120.49531059869344 5.0801646624264905 -6.73119969283085
35.91686564500174 -120.49410644935658 5.688330143068357 -7.075469240260385
35.91711162897828 -120.49238058038507 6.196137473199763 -7.272043019718384
35.91747117069821 -120.49552420390579 6.327402843474037 -6.8632411479257165
35.91754473189393 -120.49295131627318 6.968705353254253 -5.646285574901516
35.9160094724669 -120.49195958575673 7.357777997930002 -3.9438260974530595
35.92016659574813 -120.49431279270472 8.121064982290154 -2.4815641962464317
35.92353402909096 -120.49201018566357 2.085625646145795 -0.9038064077231902
35.92089877804395 -120.49435190483824 2.290413506626406 -3.55771689214853
35.92291842729556 -120.49358903751217 2.9192799818257313 -5.468089036665468
35.92062665485502 -120.4950024195868 3.290684091014 -6.1754384422260715
35.92287422428936 -120.49585860819796 4.189055663659701 -6.189318097866436
35.92324940499634 -120.49549661636787 4.50548658040315 -6.109414476191242
35.92401702084675 -120.4957063647705 5.147647746434038 -6.289047554892674
35.92421008425227 -120.49500480163287 5.393324445349352 -6.901374179461951
35.92115606549596 -120.49586688372491 6.1710567087109585 -7.506755922613129
35.921659409034035 -120.49259158715506 6.358641519523077 -7.375216280559788
35.92238879982998 -120.49220282924684 6.932049039726223 -6.126593359953541
35.922786035668 -120.49471098512534 7.452237739524285 -4.028725174539914
35.92399125303978 -120.49275083855557 7.8775574312842265 -2.230264146142399
35.92209544239905 -120.496729559782 8.5602958694323 -1.595800846425425
35.92455916717793 -120.49571663139422 8.864540030124587 -1.778521601776852
35.92535353779294 -120.4922040219792 2.5791356809133794 -4.3819513531703995
35.928999810774734 -120.4963713878735 3.0917049916491983 -6.413095961719776
35.925172101368574 -120.49214717650102 3.3331495123467967 -6.5452818154499575
35.9292296877044 -120.4948489846363 4.013990871956246 -6.295836918255329
35.92774771982683 -120.4954599781102 4.68143180653842 -5.947936257578556
35.92819896263751 -120.49215164941654 5.013491825331151 -5.9886251273506526
35.92481400420047 -120.49652731324431 5.5382949381094555 -6.775077083979327
35.92604818813062 -120.49355671236644 6.058648239787079 -7.668418909574324
35.92820068152042 -120.49443948804523 6.34726897885752 -7.666963299518958
35.92816765436095 -120.49454297218885 7.195478822231509 -6.269124091901151
35.92899355066249 -120.49483490088205 7.640047045285631 -3.438412614722829
35.92683686568565 -120.4967517833993 8.09464277819836 -0.9756282811132244
35.928400420412366 -120.49245535157455 8.833950366533431 -1.0369807833727407
35.92668641417545 -120.49620817579512 9.284235188952884 -1.8988002182897517
35.925244325915514 -120.49625318171817 10.100078174453419 -2.361395014030995
35.93131999213566 -120.49519457827277 2.7313913765119877 -6.1933870600894485
35.932742069176875 -120.4953324553457 2.8367109785130493 -8.46620123856301
35.932537444924854 -120.49415054040752 3.315328432058557 -7.358671848534605
35.93196312562608 -120.4943830932104 3.8045863327361373 -7.036286325383645
35.93009510959985 -120.49560723165953 4.582263336773805 -6.4349403543569
35.93019794619567 -120.4936022187261 4.776375529419058 -6.289547052455873
35.92992403252184 -120.49377190463085 5.454348377749317 -8.190167140023242
35.93118252893375 -120.49476583560758 6.201089067697946 -10.577217317499944
35.929974658309696 -120.4928885770147 6.3667330528622035 -11.221123226340847
35.93190981678589 -120.49209791485204 6.856342904916577 -8.777304812330158
35.93214604791404 -120.494740248192 7.279279075954868 -3.1405612051209992
35.93036577703776 -120.49673806758706 9.07497423295247 -1.249783135073315
35.9311075406349 -120.49358940756075 9.305513100308195 -2.7171959065013915
35.9310800895688 -120.49509931788886 9.8667280282502 -3.5777635887712878
35.93087246512071 -120.4923332581292 10.325138607803213 -2.3116781318261506
35.93804066382654 -120.49389571038515 1.9231214053287524 -0.9536171156780529
35.93451510307494 -120.4919641279181 2.657526459559735 -11.625024787433883
35.93532055689587 -120.492102397332 2.879719974630656 -14.407807921380792
35.93658377715895 -120.49448985352038 3.351721605000614 -12.546999822146931
35.93704231238889 -120.49618063421346 4.090958343006771 -11.574270217940763
35.93447118832757 -120.49198926364444 4.311064875324636 -10.449205464190765
35.93664676648014 -120.49379722319568 4.789942777838974 -9.971914363240488
35.93392352828031 -120.4964479199093 5.628505391560344 -10.899568959757026
35.93491124996573 -120.49280523496337 5.75875359213831 -12.416241938577476
35.93405449825701 -120.4964643660674 6.381918470234683 -13.121698174052442
35.93461552965565 -120.49502945294698 6.750615280647969 -8.738453806521953
35.934879163813434 -120.49308542086338 10.149658806829214 -1.6984255163677555
35.934905389075126 -120.49323877882836 10.46613494244767 -1.6698406298778357
35.93674965513486 -120.49258011969631 11.185828395950745 -1.9542676974459634
35.93637061975512 -120.4957278029069 11.343006722058467 -1.3505180459510144
35.93918694196485 -120.49406673295023 2.509431619625358 -7.453784471650761
35.93966773749438 -120.49648278689659 2.759653319306753 -12.457671464589529
35.94244348332454 -120.49359616602638 3.68749666571836 -10.853613074752412
35.940557938432505 -120.49679346257406 3.942152462105008 -9.76996518811058
35.93861078678356 -120.49382363598446 4.507858969152987 -8.665595884252093
35.942426073124885 -120.49683997657209 4.991170465647457 -7.768242803182597
35.94105179960596 -120.49444250380722 5.455145939797637 -9.321312679591358
35.940804549625405 -120.49412139500325 6.036048024979104 -11.832801444792823
35.94072055635112 -120.49261642363538 6.587526298487921 -12.970390256687084
35.94019884820141 -120.49389005460337 6.827065273012929 -12.435157534432884
35.94102837318445 -120.49306475269313 7.681380137634184 -3.851151502109084
35.939463569529835 -120.49196634404443 9.524365403242415 -1.5560011024372866
35.93912940766119 -120.49347567718713 9.80139036505238 -3.9892997419156786
35.93942877617981 -120.49396399058911 10.365753540172731 -3.3363371530692874
35.9415411392405 -120.49515585267967 11.064088833983035 -3.14820887663327
35.94031915402145 -120.49358063677118 11.488190485949469 -3.3151175724510797
35.944059212956475 -120.4943483317833 2.4452562235926307 -5.890064635356657
35.946013418340165 -120.49366731325944 3.1247085763774662 -9.187636261533266
35.94509720916792 -120.49456003271303 3.4714464290363614 -8.931320770637077
35.94554432803134 -120.49657245837734 3.899704184879077 -8.609732298985302
35.945929945667686 -120.4930705192757 4.4786207742725805 -7.674367015317251
35.94662621524303 -120.49686081038247 5.243145527518341 -7.271451643330556
35.94642466205367 -120.49711758159812 5.738237102907961 -8.47102158364492
35.94467222491952 -120.49605591333378 6.214065531153224 -8.886031999293671
35.94373795611926 -120.49631283983125 6.438176220449677 -8.35038268263885
35.944924695107304 -120.49189446798374 6.93424334802691 -8.066711873910437
35.94430996180322 -120.49669335975878 7.393474509343826 -3.5660087969962935
35.94723160099937 -120.49604640113752 9.54483907002343 -1.0369093182633746
35.94475067108824 -120.49585335239654 10.184040693281608 -2.0003959652852283
35.94559721203244 -120.49445180649302 10.331130911212856 -1.5231338638086793
35.944347816581974 -120.49563435410485 10.947230904107125 -1.6156055043178417
35.94371929544116 -120.49364697322359 11.393216746029042 -1.621766116364414
35.94926738127604 -120.49340637852708 2.0603364556933297 -0.965542693868865
35.951213889704626 -120.49482414557995 2.374657981323805 -4.527033427973864
35.94927075483816 -120.49588223308969 3.1127935927147514 -7.253920840311803
35.94849536683478 -120.49347331216295 3.375726191601651 -8.064915525223952
35.94766263244953 -120.49221316837613 4.104790539250823 -7.907591578876311
35.94876776106032 -120.49304616682177 4.4727723540419575 -7.454919262878496
35.95149045668934 -120.49678343533094 4.867181155267704 -7.07299961331829
35.949120132287014 -120.4945993103291 5.743950462514547 -6.930430654907212
35.94925911030094 -120.49716755282401 6.2059045923617875 -6.776529813221573
35.94776479654225 -120.49604530635375 6.70049911732256 -6.43035978814037
35.94881649212182 -120.49616196910286 7.010745033073588 -5.254901315233561
35.95068175517709 -120.49534101394055 7.575074768703155 -2.483257126436135
35.95482358445724 -120.49520955735468 1.7969618646379315 -1.3424259082347205
35.95446093634065 -120.4928395846837 2.6886691742564253 -3.5240820678537323
35.953546203247 -120.49417319953508 3.2033850133298705 -5.613627117751785
35.953157904629464 -120.49707928439562 3.592136252175613 -6.7150545072414705
35.953571668157196 -120.49518113322844 3.872889461793772 -6.807817215663218
35.95579723745171 -120.49333012984076 4.604203061193636 -6.785804506982507
35.955455199838255 -120.49613519047817 5.040941832328578 -6.7752800102957655
35.95211034853739 -120.4963087124633 5.388664267017602 -6.742052222578395
35.9550023772983 -120.49271063678563 5.823153201221956 -6.6686173751610855
35.95552670913351 -120.49432247945438 6.6648126241899455 -6.273568696243772
35.953082679113024 -120.49586225887975 7.036731704277066 -5.0213183259590215
35.95619164229389 -120.49517315130653 7.299810854744288 -3.524363826119044
35.95492817189249 -120.49672513262328 8.21589223533471 -1.6482389008843328
35.95861749877758 -120.49547361732367 2.1819453637157453 -1.552965709368252
35.95945534121345 -120.49179412421587 2.3882149409355606 -3.080743300013804
35.95966560693622 -120.49176712701308 2.9041932524383802 -4.526554328824628
35.9578913904583 -120.4931039649429 3.29032807857497 -5.433850496779567
35.95782442758781 -120.4926103628333 4.1815408546141475 -5.7356668433424005
35.95812431662549 -120.49299876189603 4.37485729677741 -5.865305639648648
35.957368221177404 -120.49430561382681 5.1003260323975175 -5.965143648427854
35.95805285561238 -120.4959239355386 5.5031160688964205 -6.0432159683640565
35.96074798813495 -120.49332753944549 5.920884747885464 -6.05081341180408
35.958599951610296 -120.49611417987938 6.460291810543275 -5.781761960683465
35.95718490322154 -120.49242237114365 6.9532540598986445 -4.989615931940783
35.9605758612534 -120.49580333929386 7.533286665244118 -4.04547791924463
35.95657750772969 -120.4926465526076 8.229991413925624 -2.931811884955301
35.95948579468819 -120.49376682705822 8.330320643405322 -2.240901334321237
35.95743183338745 -120.49673209928923 8.963657355354286 -2.4166527665352553
35.959813271636925 -120.49199759175008 9.565556750913375 -2.488003818424256
35.95738763784492 -120.4945835559186 9.935603035397943 -2.2601575220982766
35.95975133502084 -120.49221961354914 10.337330666532695 -1.9130715502376914
35.959787804561934 -120.4960032982132 10.790187241779758 -1.376506241255429
35.96167325107353 -120.49684239302529 2.0933675198569817 -1.5910263978766002
35.96372688130955 -120.49568013997047 2.4963739877616717 -2.6652154269374844
35.96468318164174 -120.49282155968537 3.0378530021884145 -3.6293804423123137
35.963180929326406 -120.49489655633953 3.548227385152413 -4.285888632498567
35.96156416235921 -120.4949359747607 4.102030444286351 -4.617574460586376
35.96505046247984 -120.49355069756055 4.321042653817895 -4.776682221363764
35.96168976512571 -120.49622183296196 5.181540274867134 -4.860271130518318
35.963346897088236 -120.49557208277515 5.4088142316115375 -4.909554272883914
35.96394327438441 -120.49247379849685 5.999030155644247 -4.900774712866862
35.96465482312382 -120.49494110380623 6.367753190096091 -4.720099848822631
35.96411391874168 -120.49388913088929 7.046597546728574 -4.2692316079059776
35.96288016360224 -120.49397137804092 7.281335229090751 -3.6884005297877214
35.96083519511852 -120.49292259954008 7.977824402956222 -3.062137759054268
35.961967354490476 -120.49310350879843 8.325357935120323 -2.615042250978493
35.96500608386581 -120.49509114845411 8.946053516443191 -2.482484508421011
35.964534942106326 -120.49412584665822 9.313957412716363 -2.3568631859161377
35.96162457964259 -120.49485652034052 10.133205737915878 -2.099745149031862
35.960936693533476 -120.49382753094883 10.321499877415505 -1.7197731712677682
35.96156869579031 -120.49621645853804 10.75977345905288 -1.2154111546731268
35.966421253086786 -120.49283881273722 1.8970641160236634 -1.4596020530608957
35.96728516317944 -120.49357276023123 2.552353887759265 -2.2241201266542068
35.96699381984414 -120.49223272288948 3.0786867731793475 -2.874474735055601
35.96582967363281 -120.4956307561204 3.27300438645754 -3.3464556225561437
35.96669046916277 -120.49288589321647 4.22431978966374 -3.6689203997888917
35.969690895544566 -120.49182794103957 4.261985132783489 -3.8601672842268884
35.96839273921287 -120.49316400964496 5.113747219415074 -3.935725208154897
35.96666517505551 -120.49402627878959 5.356568924796229 -3.945822986012153
35.96783286018762 -120.49580696848764 6.129829665427016 -3.8986637233484926
35.965594299700875 -120.49434258635911 6.486143944878504 -3.7477344883849075
35.96716188783069 -120.49555448087996 7.156080801387236 -3.4635491570795343
35.96623839869517 -120.49229897989618 7.468644212213259 -3.113191408038373
35.96909265063289 -120.49634994624274 7.832863172591136 -2.7755080509533387
35.96727604167815 -120.49687014769346 8.442038358537571 -2.5141482428625332
35.96724829986852 -120.4938976843721 9.010935939002866 -2.3245665236657778
35.96606845225325 -120.49199726939561 9.312400051694318 -2.1366364810793312
35.96789539690481 -120.49542302836757 9.903889724224902 -1.9052207371232275
35.96594243756058 -120.49282266878494 10.345352855932395 -1.5865749945201715
35.96965244287684 -120.49544016588217 10.877211673133713 -1.178161000906398
35.97252701483524 -120.4928126179349 1.8583307038650747 -1.286110321406744
35.971142772816414 -120.49660782564474 2.7375531768761703 -1.8637967940527882
35.971989816386895 -120.49479927157525 2.802760047230857 -2.350322532346218
35.97294069584954 -120.49338546932478 3.335344480596873 -2.7300165518545683
35.970837663046616 -120.493567159845 3.8080218836978417 -3.085595865569635
35.97225326001859 -120.49468481605957 4.3555186688540015 -3.336849544647732
35.969952421156 -120.49212773005563 4.8589242210155135 -3.406527958211065
35.9714847292975 -120.49339789929282 5.657803896867668 -3.3926275463807927
35.97241453568579 -120.49353021233529 5.9108082069130345 -3.323622929893938
35.970236020407135 -120.49533319073014 6.660294134336964 -3.1880120415043836
35.97108111859808 -120.49478644756758 7.07902444722318 -2.987040342228454
35.97010880139182 -120.49720194335916 7.707478757792205 -2.7621359072504883
35.97212847308932 -120.49541765413865 7.847422972343232 -2.5629103989951174
35.97140444837067 -120.49309330624193 8.576079105058357 -2.396030778140843
35.972032355897014 -120.49341785750904 9.035173640106175 -2.1712570709241836
35.97345409979066 -120.49378058254688 9.535770021141836 -1.9403048695231244
35.97410978052569 -120.4957679805987 10.109992600099604 -1.7572060547514796
35.97220096360337 -120.49507325245824 10.645003615049678 -1.5166524857010906
35.97728767638721 -120.49426491080638 2.084194274146808 -1.1221980880804647
35.97680345292556 -120.49705300037213 2.3007369628774303 -1.5754774472703355
35.974920502849834 -120.49334091170279 3.216968770193687 -1.9509260567600142
35.975690707680826 -120.49353542522789 3.437252738489014 -2.228118538287493
35.97641432815849 -120.4931509551585 4.146805065621383 -2.6779237212906444
35.97438928765075 -120.49182323159808 4.416088014180716 -3.0406223256387794
35.977055778503434 -120.49591043788016 4.920606473270622 -3.062295116163468
35.975794567811676 -120.49625531444613 5.462162773604621 -3.030118802511928
35.97441062669891 -120.49269237729385 6.141090748348346 -2.959588959471055
35.97504948960754 -120.49341433454124 6.364329447237859 -2.8460628303878197
35.978545947110725 -120.49397052938802 7.141783101766964 -2.6990406991086875
35.9748433548739 -120.49174608623215 7.674426937691687 -2.5478442653984796
35.97582443805628 -120.49215048155448 8.196531158462172 -2.4299931566826345
35.97555052486138 -120.49526236990766 8.410533237070966 -2.3544472353292707
35.97641266056368 -120.49214070958199 9.24893173249829 -2.0290389849775408
35.9744573082857 -120.4968614707088 9.454019432993588 -1.6974510783050296
35.975011387898505 -120.49427064058958 9.778484716701717 -1.599082262714183
35.97511632869741 -120.49291218318118 10.289665413350436 -1.4309091365364641
35.97966733128931 -120.49722116876882 2.245116640467525 -0.9964053289307178
35.98172292506114 -120.49355270301398 2.7492019027153027 -1.357913401341908
35.979476424374425 -120.49503906060302 2.951327373503804 -1.6442741223248438
35.98199783740324 -120.49356672670575 3.2919965245761382 -1.7513335491294053
35.97930166979458 -120.49485462677129 4.057305136980301 -2.356659235886718
35.98184173121244 -120.49667947078012 4.306927208624897 -2.886852198192365
35.9832032035388 -120.49451789728575 4.760756907362839 -2.784854375748714
35.98314810581384 -120.49449146335188 5.253075473603043 -2.739993680475475
35.98049198202454 -120.4948055462478 6.044284919669641 -2.6779301713737773
35.98283209813607 -120.49551540597787 6.575625565811328 -2.5873587673047376
35.98073283337497 -120.49714238847702 6.9444571919863485 -2.477329845713555
35.982114619751954 -120.49286638108339 7.465270309854751 -2.3710412600414332
35.980198834582076 -120.49592093240504 8.109434414036857 -2.3064024864054797
35.980827154676795 -120.49592312101463 8.609810407495594 -2.37665436402289
35.98270791810156 -120.49571703126905 9.060385931106389 -1.8802233268057365
35.98234626507963 -120.49358224101832 9.528946186735759 -1.3808503978413074
35.98082607078996 -120.49680062179289 10.200074205593507 -1.4261758168690555
35.98204205501322 -120.492950512044 10.333082782185539 -1.310871938974948
35.986263596485784 -120.49471001221458 2.7235375025347586 -1.2113993186642062
35.98396070831966 -120.49581126757252 2.8905610955962295 -1.4444023029595894
35.983437743516994 -120.49642632808309 3.710382826508505 -1.5172554906712916
35.98764167148936 -120.49234147247314 4.044074620828745 -2.1002177232181745
35.985672525814785 -120.49313021414721 4.370813772162106 -2.6292400048141014
35.98738464016933 -120.49639665126405 5.072137983991555 -2.531605225947392
35.98521744518299 -120.49225544124427 5.589210736765831 -2.4946250089960396
35.984467562036755 -120.49428292319385 5.8909100210125445 -2.4451787969506715
35.98357019646806 -120.49527360683355 6.2900996944326515 -2.3731477861867107
35.98565909062079 -120.49230317079684 7.00668884416265 -2.2862552892085293
35.987771926187115 -120.4941510689926 7.63636336774151 -2.2025040930789768
35.98530819987203 -120.49488856870437 7.950584242810899 -2.152635062104251
35.98708222320695 -120.49576987402656 8.730090729633623 -2.2193984577331785
35.985465322184595 -120.49269708573708 9.043812915888003 -1.7306053060072888
35.986386104484616 -120.49480170401007 9.590759422328004 -1.2300181474060297
35.98540565198075 -120.49477784041424 9.960349393778522 -1.2709474701649612
35.9911021064032 -120.49588261416848 2.275825457577464 -1.1210590803020823
35.992079426428724 -120.49465705528283 2.843683846269122 -1.3330645807420982
35.98987125981774 -120.49616791913832 3.736475952635726 -1.5051655533737658
35.98845685876454 -120.4957580598946 3.7742207961341383 -1.9022521696158061
35.99121511034157 -120.49598405314674 4.337118443236676 -2.2519162547469533
35.99018427351502 -120.4918870855611 5.10215006183125 -2.2833374607656554
35.990775351141124 -120.49241717701324 5.447041890928378 -2.2727476583787913
35.99220148206522 -120.4949126718464 5.814033332780335 -2.2377794797999497
35.99007309413919 -120.49350534098137 6.320782311233947 -2.17992723197402
35.99189885627502 -120.49208953344828 7.012824739845262 -2.1066992060964673
35.991485576444994 -120.4920107152769 7.364465528174095 -2.030472948012418
35.987961742575074 -120.49477572924077 8.210698651774049 -1.9656178272428317
35.9884717890523 -120.49612621583702 8.272742854779423 -1.9027801555079267
35.991634361143646 -120.49283648035045 9.207803319956756 -1.5753849864370684
35.989493685539976 -120.49194112981594 9.483094155418724 -1.23954992239827
35.9909954707661 -120.49387188672111 10.01934641434461 -1.1519638511319825
35.99465513286001 -120.49629389692299 2.6121230178744157 -1.062626133651605
35.99409444558625 -120.4922318273216 3.243913498290408 -1.2600559738996442
35.993435510435624 -120.49625815946105 3.355751667828957 -1.4555593324172493
35.994503085717454 -120.49329916596763 3.9403086338774744 -1.7198963441004789
35.99244075792221 -120.49342493586863 4.735196576870718 -1.944180964739066
35.99272318548034 -120.49660529144913 4.774750043015416 -2.022195607156815
35.996182589056964 -120.49559166540092 5.528410409799398 -2.0340107699368186
35.995125085764826 -120.49458949719728 5.961653623722834 -2.012122130460402
35.99537146405657 -120.49701299098712 6.698555266140981 -1.9655092232824338
35.995549188708786 -120.49220666736022 6.759746354837935 -1.9013802067068377
35.99683152896384 -120.49366621994129 7.361897000807928 -1.8274842479638531
35.9948601711705 -120.49539280979116 7.961349645104723 -1.747099390650737
35.99259896314937 -120.4920073284028 8.449576343961388 -1.6355687872940765
35.99385468367563 -120.49314469717115 9.215217271163745 -1.4171878103242066
35.99356517454944 -120.49665928556816 9.34975126944075 -1.1912938449643595
36.00077458034081 -120.49439710116161 3.1814073561064675 -1.1906027357616584
36.00078817416169 -120.49226534395521 3.5344930568832664 -1.3585773627316904
35.99978510317074 -120.49721168201867 3.949297510133008 -1.5303662480378135
35.99998272966171 -120.49352011669669 4.446646635708412 -1.668491503917189
36.00081151061808 -120.49311023067963 4.789736370853788 -1.7380171631146153
35.998660558072466 -120.49195697090582 5.303721037574583 -1.7579699536682327
36.00085105536824 -120.49250813884187 5.927275393939103 -1.7453967182596963
35.99890109314338 -120.49237323741858 6.400324018816298 -1.708176303360144
35.99944963674648 -120.49269220429548 6.921743079209163 -1.6521509856761516
35.996847970773295 -120.49598636998043 7.395558638899346 -1.5824925740654885
36.00008942844878 -120.49652449195679 7.978315054145966 -1.5006489430385663
35.99941340760306 -120.49199609732436 8.625201250428502 -1.396008763158369
36.00057493119163 -120.49524465726618 8.96931714051939 -1.2522971854551033
36.00561588876414 -120.49179694014242 3.0684269911300106 -1.1187197433820684
36.004400732693206 -120.49539523577047 3.5908208803500083 -1.25270649841883
36.00334720567075 -120.49352168127548 4.1344458205352135 -1.3666052801743969
36.00484294456298 -120.49234027854389 4.677364908819981 -1.4523974539108413
36.00481844990421 -120.49425779059042 4.98469216169348 -1.5041881789353853
36.0038694927037 -120.49584870401814 5.264091961153707 -1.5246358800168889
36.004942477457845 -120.49412540957164 5.850238776247816 -1.5183047951040893
36.003607281723674 -120.49443168399624 6.725087581741001 -1.4892493249187435
36.003205242899675 -120.49310351488454 7.223997923363841 -1.4415135322472206
36.004521943010076 -120.49671472603433 7.4939811191317816 -1.3790299459958664
36.00478109982497 -120.4969793945346 8.089298616062198 -1.304653452119721
36.002620389688914 -120.49561994130767 8.388918366013547 -1.218728566180436
36.0025249779883 -120.49700007180115 9.17070388093452 -1.1207557764318787
36.00688048271605 -120.49306079019318 3.30460053417121 -1.1614493553446896
36.00922850936257 -120.49360101636576 3.804654142276686 -1.2530414176244407
36.00779458454097 -120.49647623388772 4.562029499885501 -1.321309076007796
36.0078163333959 -120.49487427591312 5.141922863523998 -1.365908531806699
36.006571412469846 -120.49351049642088 5.478249620512283 -1.3869539289168418
36.01000900538643 -120.49522495234575 6.242377156454989 -1.3854551979132899
36.01025902881709 -120.49411209945946 6.520323875959893 -1.363480330164254
36.00981331391185 -120.49357783166028 6.812032376756033 -1.3237514641933563
36.01010623402921 -120.49555398790139 7.387426991171062 -1.2692379103074072
36.00950592059325 -120.49612521050607 7.922829008947706 -1.202881547494126
36.008007109451086 -120.49613755176519 8.454519829638324 -1.1273420971678703
36.01462416383144 -120.49271178445485 3.672329249903647 -1.0784352935123582
36.01429024977796 -120.49468307912754 3.8150070194397374 -1.1606287308944374
36.012894932760574 -120.49493564522393 4.629062484467613 -1.2235463147179237
36.014022196825444 -120.49346200852831 4.751564156030327 -1.2661984984862762
36.013696347655305 -120.4939234633026 5.469756882986317 -1.288381972893006
36.01189044702768 -120.49219295338224 5.880889534796794 -1.2907437862555458
36.010484706990894 -120.49659385946156 6.676098425404037 -1.2747225091305459
36.01230712318286 -120.49707050556344 7.08268919964563 -1.242223958103817
36.01376849382369 -120.49251060741568 7.404901564915273 -1.1953349642581887
36.012780981658516 -120.493500191024 7.8098163365602185 -1.1361764673106651
36.01821414901652 -120.49235616877938 3.724017413988737 -0.9951569035795479
36.0176267941965 -120.49176649977954 3.762663862960041 -1.06834961674776
36.01699089528262 -120.49430193076141 4.445345294890778 -1.1256280617050798
36.01761219619915 -120.49233364348353 4.908553508459875 -1.1655788866762706
36.01883448316493 -120.49207401501569 5.419035236413243 -1.1877784065054773
36.017757078841626 -120.49364526938538 6.18346910061955 -1.1926699318688756
36.018384353422434 -120.49621663650939 6.656901103695851 -1.1812874100811752
36.01859875092687 -120.49395751985614 7.245398495673003 -1.1549572660211231
36.016791324139945 -120.49407444268867 7.350702150694013 -1.1150985042018673
36.01697265499527 -120.49688627344858 8.173408858149438 -1.063146638834067
36.019390903484826 -120.49304725590969 4.0701884993201505 -0.9740891658576991
36.023241452962935 -120.49314500632991 4.614722079277349 -1.0243807218852932
36.02374052225496 -120.49695780526939 4.762707370469616 -1.0601785222321043
36.02145691833515 -120.4948231081814 5.268713748963978 -1.0809753011031464
36.02383973777941 -120.49288453498754 6.0663098939682625 -1.086970476292537
36.01961640734835 -120.49320256645872 6.726441498708021 -1.0788273517932838
36.0229433724456 -120.49172168090571 7.085737432171456 -1.0574336113052347
36.02194311876133 -120.4923745931739 7.290378751266124 -1.0237575592551607
36.02635128453312 -120.49252542713015 4.17590931372316 -0.8805465462919048
36.02425146078622 -120.49371335147582 4.717688540764288 -0.9235849247909907
36.02753140189178 -120.49189710206858 5.069436002584698 -0.9545686376781357
36.02587427865273 -120.49206185201452 5.314947826048411 -0.9730172879385709
36.02747251031448 -120.49491532198358 6.099672199176121 -0.9789656441449917
36.027139438166046 -120.49575042808277 6.637043505357644 -0.9728021821929105
36.02816231879432 -120.49485295450198 6.93806799658743 -0.9551055354853626
36.02853553490724 -120.49537736638443 4.717476765588616 -0.8261778095649056
36.02990519642382 -120.4955004015589 5.110198393362818 -0.852322932779558
36.02941713641648 -120.49266308510605 5.2801399239976385 -0.8679875023574681
36.02989856024358 -120.4925387714868 6.128958045179996 -0.8731282136331654
36.03237570249425 -120.49236236792387 6.472031217374972 -0.8679656450330456
36.03189789700508 -120.49309678860428 7.020540119358612 -0.8528811594317087
35.882113946396665 -120.49094453474449 2.021024826423631 -1.0633067186598835
35.88148315063448 -120.49009661796174 2.5985430938501177 -1.431230782091883
35.88861118476065 -120.48966726813757 2.181912888466183 -0.9608106138610396
35.88678452306381 -120.48797280944912 2.554094131764024 -1.379474727477866
35.88668156408145 -120.48779803632272 3.0597584912353435 -1.7104160998245002
35.892120673495036 -120.48734651491453 2.166515257672203 -0.9150063669390189
35.889903657783414 -120.4906976388681 2.6556321702767445 -1.4562009698183338
35.8913658710097 -120.48677323913151 2.8842185958788287 -1.9680098615397936
35.89092078170489 -120.49137921728779 3.633012012683054 -2.4178276576954336
35.89088321287638 -120.48805113530088 3.9402752044998093 -2.795566859547421
35.894812314752514 -120.48913209982754 1.9229018959394293 -1.0795410802337149
35.89651575308593 -120.48773675769455 2.5337650632369497 -1.7739350491422028
35.89360867926645 -120.48779651606846 3.0434598811852673 -2.422199016640065
35.8972785177106 -120.48814669173515 3.6136551366907175 -2.968048895636196
35.897098394222084 -120.48790857918304 4.2440287046486125 -3.3971857916078836
35.893736811374055 -120.48901798136671 4.43718663296598 -3.721105824220983
35.8974779836034 -120.48792809118792 5.204672376776148 -3.947775485038424
35.90103302101771 -120.4868725968901 1.9546992350149823 -1.3150409840618742
35.90085888372942 -120.48992470309109 2.601156841080105 -2.21873941888897
35.90209657005341 -120.48765634477598 2.854747847311865 -3.0290757083740947
35.89995347346337 -120.48693239476552 3.379856522195686 -3.668149434009305
35.90066078889867 -120.48956681995568 3.845408376377735 -4.1365111920283475
35.902144689206764 -120.490719578344 4.598939669873919 -4.472469515573341
35.89892713940082 -120.48700599154087 5.249262258420885 -4.701664573577155
35.89920432145052 -120.49063454514267 5.638887655241347 -4.8064779603763785
35.899252018429216 -120.49074012887358 5.915946834448059 -4.722455666413436
35.90523986363266 -120.49146590136188 2.201332413096708 -1.5468362633275081
35.90624291981399 -120.49151731954939 2.549925725732148 -2.750997075615312
35.90427985856604 -120.48626056568486 3.0557566237407645 -3.780803818061905
35.90637592060903 -120.48978181460642 3.398340926111809 -4.520435721849606
35.90332837487708 -120.48639274478806 3.90760865610331 -5.00254009832471
35.90444146926396 -120.48627215334187 4.724851083581066 -5.320156251840536
35.90626311752701 -120.49088975107648 5.070215931150613 -5.534799057034211
35.90400188686899 -120.48832709423017 5.279852063461699 -5.628296108460297
35.904451138392844 -120.49027437574894 6.151297500658303 -5.486455262424637
35.90365019551758 -120.48957792972142 6.675729413670873 -4.9813202440622995
35.910497263690544 -120.48802201365442 2.14111701341899 -1.7497203281462406
35.909805358871374 -120.49041460477555 2.7240421469298135 -3.395067938941143
35.91113963415054 -120.49088930150282 3.002161137369982 -4.717985817770288
35.910219366626436 -120.49075847428786 3.582539818635701 -5.542763877298518
35.91122491626098 -120.48779240332416 3.8652005064072528 -5.978744639461704
35.907491299269914 -120.48648820873169 4.386150344879035 -6.227112258496183
35.90896399930532 -120.4883131014648 4.881451933874761 -6.417882101022041
35.90766143598596 -120.48655850155563 5.5368717497592845 -6.538763813855434
35.910029999200326 -120.48766716997841 6.204728603946955 -6.3843175822419695
35.909146750198225 -120.48850915168718 6.727043551124188 -5.704209097510988
35.91002846667108 -120.48679735188243 7.048283094455294 -4.4790257676254
35.90807493962995 -120.48738059811112 7.58005795818401 -3.0186676175830716
35.914800333525974 -120.49100713300278 1.848512921674552 -1.8354788042485821
35.91411669955148 -120.49075045417996 2.3342460204530293 -4.150270890956048
35.9130237967164 -120.4872427403601 3.040446715859474 -5.872528344559204
35.91234295906591 -120.49069438702735 3.633340867000786 -6.735298734921469
35.9143117782651 -120.48927266862275 4.191861587520882 -7.025103985895948
35.914398924919034 -120.48634103409644 4.658665106350415 -7.135401401506709
35.9142007652049 -120.48619927699099 5.24730989906297 -7.309102418820157
35.915441663075406 -120.48897384723469 5.4885673385659235 -7.5731457304111185
35.912535487579824 -120.48947104123725 5.918934791528605 -7.570880948039974
35.91436686193676 -120.49087835546432 6.485392355802349 -6.82552267165023
35.913494700469954 -120.48640254652334 6.930441379146151 -5.192318690826085
35.91462779025178 -120.49108797085512 7.7394306273764615 -3.1273818996526725
35.911744635630875 -120.49170519194433 7.826440543951463 -1.4532304622990697
35.919549787049796 -120.49032178273777 1.923323923375215 -1.4892770605863115
35.9159199669587 -120.4861517523814 2.610231011463672 -4.75749217491074
35.91803633543888 -120.49031038534562 2.987097087659398 -7.001164798382391
35.916070873295816 -120.49163030585638 3.326203772290489 -7.7720088502189615
35.92013773263309 -120.49157404817788 3.901946887850446 -7.75787158537614
35.9185588885555 -120.4893028512206 4.661346946620216 -7.631864367608858
35.9166422810263 -120.48964384401778 4.764207660889104 -7.7701450688497875
35.91977025016711 -120.48636728820885 5.657105801781426 -8.412348156302595
35.91791916884239 -120.48778851699517 5.83992991315342 -8.994319060132588
35.91845582327537 -120.49039733850208 6.567678689177773 -8.583941629044617
35.91854984967651 -120.48999588435275 6.890204247366205 -6.697057106745056
35.9181409043528 -120.48753584745046 7.452691833216617 -3.8281571000578842
35.91844470113823 -120.48985411508318 7.892970090356972 -1.5310553322835738
35.91976056531487 -120.48772815523957 8.869810396213742 -0.9609435310809858
35.92191429544437 -120.4871227725143 2.70505854366125 -4.602046962709657
35.921010831114664 -120.48928340884333 2.759032714678606 -7.338837651047774
35.922354042600155 -120.49098841229171 3.298583938800039 -7.5218050060865576
35.92113319347074 -120.49099974577688 4.245483004284113 -6.9142941801809545
35.92290437320103 -120.48966132620083 4.279477630223914 -6.427347159188494
35.922637164921895 -120.48737307930328 5.023683381103864 -6.463817730814572
35.92069326760589 -120.48827193033917 5.748399114879382 -7.825475434416863
35.92137158692626 -120.49166890664492 6.094285802542512 -9.624013954145578
35.92067567597902 -120.48925159876073 6.275028264922209 -10.129222997103074
35.922527264109874 -120.48711658251355 6.836716137444473 -8.563822282452916
35.9246400644556 -120.49060476748927 7.515280095667037 -4.880394173060573
35.92315523801915 -120.48959794953925 8.100088720155977 -1.7695998210436055
35.920979376559565 -120.48960670802626 8.586688573105365 -1.4517208441399942
35.92474049774226 -120.48961383040586 9.094348325129964 -2.3965851691481683
35.92304194686598 -120.4884406748197 9.428401931586425 -3.4898003243112807
35.924689500399495 -120.48681074371001 10.191649175860046 -4.067900584204581
35.92501859759555 -120.4905223383242 2.666953682766786 -5.9186613058312
35.92734273528236 -120.48666480115892 3.0494027502185004 -9.937806005098357
35.92744891706933 -120.48839097182673 3.628036594819422 -9.699942379921797
35.92852375321583 -120.4894941751338 4.225757785303885 -8.724652933825631
35.92690320377968 -120.48644642141021 4.568433708607034 -7.85683965528829
35.92851632637958 -120.48770550011857 5.153565604464296 -7.74759940074399
35.92924185169179 -120.49042765888133 5.477714064745873 -9.029547380609692
35.92524154236181 -120.48898183177918 6.112499215152312 -10.607655694039238
35.92692792941727 -120.49148280902213 6.481652040030313 -11.249620432408728
35.92630466098397 -120.48658850902392 6.7817388182738325 -10.245813602250793
35.9283310495548 -120.48927620707022 7.331854171690968 -5.141284663905528
35.92813860388965 -120.49093218771344 9.13877397672376 -1.1577981093466179
35.926782380811495 -120.48626797557351 9.59493596633459 -3.0518916348767773
35.92543034716 -120.48664506742412 9.798878320316504 -4.063134531749248
35.92501455482475 -120.49026850489753 10.620950798274087 -3.7068439519849044
35.92887263701265 -120.48818020080128 11.150061578971016 -3.525317790633842
35.93001924262404 -120.4882887555282 2.3072979947548857 -9.801620051508248
35.933052991325745 -120.48753663423987 2.9019066144980394 -14.860641848097083
35.93223357172619 -120.49017989312534 3.383676086117376 -12.707949721034787
35.93065125742704 -120.49053122630158 3.9758949077823798 -12.53029962053528
35.933273423293805 -120.49058485976224 4.299879800432676 -12.330496274087032
35.929871541158256 -120.48814788929043 4.984453916352519 -11.956957551176824
35.932703848466055 -120.49025010931963 5.571341320303809 -13.110111208171043
35.9335557544248 -120.49128686508878 6.1009752504851456 -15.029038575699502
35.930644861905805 -120.48912924939904 6.551014938634532 -15.553178678027916
35.933026390607715 -120.49064147467683 7.16424980645985 -13.643205385925562
35.92943915544321 -120.490134425275 7.258507038197182 -4.407071816604437
35.931634625696525 -120.49140782402999 9.643192947468878 -1.7042314716483042
35.92980565585552 -120.489278423657 10.081135317373754 -3.309225218397698
35.93162803573273 -120.4879981782822 10.408459599543413 -3.318523906785099
35.931248307667374 -120.4913252271711 11.196358074471151 -3.361126787625334
35.92960694429156 -120.48908802234138 11.40077418049936 -2.3463213783232097
35.93706552030251 -120.49142726082802 1.936186170559411 -2.471103829296344
35.937370744970664 -120.48977725999023 2.448537253702513 -14.329648645470545
35.936232208421984 -120.4915714573576 3.2091365616188003 -20.392381442454333
35.93532810448184 -120.49013000748397 3.6346989742208544 -19.26689638279768
35.93383164120651 -120.48979705671495 4.201006127095162 -18.51157213009733
35.93656020559208 -120.48703874560545 4.619856903558809 -17.77523559845278
35.936941040996935 -120.48946542587356 5.189018455349079 -17.562021305218074
35.935803135581736 -120.4871786724113 5.436297067479145 -18.56816673259756
35.93664754545774 -120.48970010237657 6.118219087917593 -18.701728074651456
35.934057659823885 -120.48790000641154 6.298609048185787 -15.928041970343441
35.937880830447284 -120.4914726522625 7.130952515132916 -11.904826150861428
35.93505053977261 -120.48990346077684 7.579720566539934 -1.9938689384646309
35.93409154387801 -120.48812168348931 9.873763528386112 -1.0409473365273474
35.936990896855725 -120.49107658094516 10.458982529463565 -1.173418837747645
35.9381670956873 -120.48971290961043 10.977363736878521 -2.0359807849372165
35.93582525907389 -120.48700367506383 11.746291671309805 -2.649802604740222
35.93842019233427 -120.48995991361717 1.9189629771356596 -1.096531103337329
35.94211423895892 -120.4907595207939 2.3459452859405663 -7.4121323414928515
35.94013390812183 -120.48666774346734 3.20957452767259 -11.189036522295357
35.93845718014114 -120.48997443549862 3.3534882554706416 -11.056765850554026
35.93984692984245 -120.49048856083222 4.016251526971756 -10.508979132015629
35.942189419010994 -120.48761281487741 4.707352242020213 -9.999047890844249
35.941901513531704 -120.48706106706744 4.856682174455251 -9.745332542161629
35.93979948936044 -120.48843877885992 5.5082407851793045 -10.511632179470002
35.93834051219713 -120.48765505288003 6.217919088779832 -11.127837626241968
35.9421582866482 -120.48729523366067 6.708375020100011 -9.012146307005873
35.93966736478823 -120.4909130610494 7.033882055143634 -7.861890011616806
35.93982750751059 -120.4906546142571 7.513602762875666 -4.335502915665026
35.93923860140471 -120.48767737986579 9.710471053279244 -2.283772158639209
35.94011880752605 -120.49016812954655 10.065193036102533 -4.1336965697449255
35.94139917736334 -120.48704517616427 10.467723431532455 -3.7085920286239733
35.93936419427578 -120.49051138855145 10.761403466422088 -3.650445704425934
35.93892338258484 -120.48892209482828 11.260585123811651 -3.929534244172395
35.945989625981035 -120.48913765738504 1.9766101558854248 -1.6622595372254656
35.943387019186545 -120.49135656803793 2.3423260873113425 -5.1226535111600615
35.94445002831162 -120.48911709621231 2.9176214215899536 -7.823985490732107
35.94620420377646 -120.48845993449245 3.3502982622606776 -8.727185901546909
35.94534172468713 -120.49019012511475 3.8776913670970368 -8.516939659896344
35.94613569223922 -120.4887969575911 4.468122811488724 -8.032326359432927
35.94357554072771 -120.4915719684362 5.201591343442983 -7.743474850519775
35.94728698648868 -120.49140445274199 5.689486675188572 -7.932561547250219
35.943126901989864 -120.49089875189993 6.249845426575407 -7.6477472047608135
35.94503390053906 -120.48692752601147 6.307312896275107 -6.704706128635304
35.94634275207688 -120.48831633556185 7.0364189218303235 -5.594006095301554
35.94715982813529 -120.48772611993031 7.29799954599101 -3.2104411917252063
35.94911279050031 -120.48816678057598 2.2384355260728426 -1.8767327315092788
