> GMT_LATLONDEPTH
> out/cube/20240614A/PatchSynth/Synth_AS
35.943320300625054 -120.5000195668311 7.691619376242987 2.155793044376536
35.94729722568264 -120.50047899537256 8.14766253856813 3.065241253943329
35.94649951463556 -120.49873512440588 8.319002290515275 3.591367066722277
35.94558012402615 -120.49804271363789 9.156846046939647 3.8416304418525673
35.94668201683696 -120.50239362787809 9.461082535828133 3.959595700270992
35.94438590485902 -120.49735635433495 10.057112603134092 4.000869995886391
35.94608983093608 -120.50040728560602 10.387771659170799 3.9793371698597313
35.945497630074804 -120.4994568071351 10.813280965084612 3.8810021298556903
35.942833782645785 -120.50022129946257 11.713105604487827 3.6496849600305725
35.94442806077957 -120.50058671551572 11.96061590470883 3.136671964206473
35.94467489715651 -120.50200907886824 12.72549199210931 2.203942884487705
35.944469450444316 -120.50161543772306 13.082696531133383 1.259722958573468
35.947676532213094 -120.49767314990109 7.041232068565157 0.8203795075667201
35.947888326941616 -120.50189180136917 7.719323519794239 1.2046219073884703
35.94985195933792 -120.50030621174791 7.873276143744938 1.5836077058259206
35.95132520356475 -120.5003569541591 8.649368721268397 1.8428861173130868
35.94982755554379 -120.50202073297712 8.90941917798219 1.9888326125803877
35.94778080625668 -120.49728076001828 9.485791488088212 2.0599408995255506
35.94813900808076 -120.5019563270061 9.752620475256167 2.0789820749544057
35.94775939478995 -120.49960725847045 10.34420743766619 2.052792219163129
35.948328949388305 -120.50027175388243 10.845282929861158 1.9748063586026434
35.95043674419806 -120.49805120770418 11.659964874439897 1.8229424949713258
35.95100651588097 -120.50240319445913 12.025125624443913 1.5609298380172054
35.94978534371662 -120.49944648325946 12.3890697480429 1.1864831857431295
35.95065011735126 -120.49821072849565 12.919379082560024 0.810712576475211
35.93405449825701 -120.4964643660674 6.381918470234683 0.9484706720102672
35.93461552965565 -120.49502945294698 6.750615280647969 1.5768457112954197
35.93579199466635 -120.49687691809491 13.098360959209819 1.6122613072407561
35.93420736504668 -120.49278269786927 13.554169197061158 0.9554715856346575
35.94072055635112 -120.49261642363538 6.587526298487921 0.9660573597724277
35.94019884820141 -120.49389005460337 6.827065273012929 2.2749054286614325
35.93962816557129 -120.49319645328372 13.068722976579014 2.2827220872791796
35.940925492999604 -120.49431755008209 13.572745559434829 0.9648681325380051
35.944924695107304 -120.49189446798374 6.93424334802691 1.211842159446603
35.94331173058317 -120.49313317609379 12.792535075708479 1.1813835657272416
35.930644861905805 -120.48912924939904 6.551014938634532 1.1025429528692343
35.933026390607715 -120.49064147467683 7.16424980645985 1.9169201581888378
35.93246326226999 -120.48720971645723 13.029241388928133 1.967588660120471
35.93010370166595 -120.48693250126409 13.538814313662753 1.1115661938771209
35.934057659823885 -120.48790000641154 6.298609048185787 1.177572448077899
35.937880830447284 -120.4914726522625 7.130952515132916 3.1125670945982233
35.93588966578618 -120.49057225506428 12.965842674093611 3.1215851906658454
35.934414554994554 -120.49145437334967 13.295817240311887 1.1763386386135
35.9421582866482 -120.48729523366067 6.708375020100011 0.9027054807935734
35.93966736478823 -120.4909130610494 7.033882055143634 1.852460476123092
35.94257243349191 -120.4890376896496 13.132036430442904 1.813330335221404
35.94145535262133 -120.4876736034292 13.624178509071317 0.8943670979796786
35.94715982813529 -120.48772611993031 7.29799954599101 1.0310628738525651
35.944544560713446 -120.48803298471515 8.145890559651662 1.3197647469651868
35.94676911386966 -120.48805174343492 8.3124571560756 1.5051528787501907
35.94670405713407 -120.49113625558067 8.777799085169672 1.6355034626619558
35.94699677353186 -120.49017055796409 9.30024854682878 1.70399025711491
35.94280213228553 -120.48742223270807 9.790699662378957 1.7223672090756916
35.94377250048551 -120.49115517453626 10.335759118631023 1.6957452023493949
35.94285571836523 -120.48752187097374 11.109646181961985 1.6195195239882947
35.944893520143204 -120.49169435112034 11.669512362161571 1.483046963862245
35.94695008572571 -120.48714826711185 12.154120066233071 1.2951864890329168
35.94562941473524 -120.48811656161448 12.597423547241338 1.010669087559354
35.92165823813861 -120.48296540360295 6.322825027758646 0.8556047292712874
35.92430770240226 -120.48124275225997 6.872590653002675 0.8809033217817711
35.92295142371943 -120.48513913925018 13.129365951117837 0.9162285165577205
35.92074891134918 -120.48080641654299 13.35415044527605 0.8690409909745019
35.92754959321391 -120.48279376104234 6.468276043954453 1.2271362152216478
35.92807877516346 -120.48436919820674 7.16813155047997 2.358150812332255
35.926205520382545 -120.48189158462503 13.204415023244154 2.4164209010954387
35.925920394128696 -120.48181313578777 13.569790697543716 1.2372346880542713
35.93113595081233 -120.48356363165654 6.536281025386639 1.3351486405197657
35.92962554564251 -120.48407137653317 7.203522562183864 3.523951323901664
35.93237213073089 -120.48092083355853 12.82269920961998 3.516239895515493
35.93227073343976 -120.48465414735594 13.390052732506355 1.3331151661473986
35.93388556416768 -120.48495383627949 6.570310439031065 1.0440240450386364
35.937705601358054 -120.48420848468545 6.779259221289162 1.9539285872177294
35.936371779219435 -120.48320034841576 12.799456005785409 1.8994126684972283
35.935578465124564 -120.48100548525542 13.352451451575128 1.0330278270791573
35.94382973270968 -120.48170057761588 9.641202543642644 0.8094399343345995
35.94330097226549 -120.48216376151298 10.015889155387333 0.8240623807380099
35.94534810855064 -120.48315919118541 10.482178923432201 0.8083842116011765
35.91622730974158 -120.47687040059091 6.361047827061235 0.9145142271567811
35.91738547057703 -120.47678145246326 6.944609822542688 1.0617493994185798
35.91708829398354 -120.47805831734671 13.136283434869766 1.1019936271506927
35.91987620684237 -120.47935585627104 13.74066480723006 0.9280874710337261
35.92238332993902 -120.47690924145053 6.580020823653322 1.3057341914143068
35.923887519387044 -120.47571301673386 7.218336354449521 2.7534684879091236
35.923382113408444 -120.47881601016358 13.195863363706247 2.8118132888084078
35.92263691556 -120.47935331124967 13.704679558583942 1.3150878033159372
35.92565314383302 -120.4791203731501 6.461311328880199 1.403859583404588
35.928928289564304 -120.48033817938226 6.9821009390406275 3.57246124112521
35.9256906714146 -120.48011378719073 13.068103409698498 3.5448027173049526
35.92866644565904 -120.47938040304903 13.276481820570222 1.3999138860040998
35.92991128996803 -120.47949324556465 6.407529852434951 1.0926289255152581
35.929337711284916 -120.4781304310632 6.765283727407647 1.815353523148548
35.93326139260099 -120.48051036181815 13.10671854386117 1.7602102452070043
35.93325149701245 -120.4759591367247 13.677914775277353 1.0794369608743164
35.91322020136489 -120.4709230792599 6.518161995913325 0.9368472820538123
35.913893135489744 -120.47029005574637 6.896098170963318 1.2269130853574106
35.91174612583005 -120.47435272456251 13.037649170814275 1.268476620971977
35.91411715970357 -120.47197715015197 13.369859097184253 0.9488018702397201
35.917220049192686 -120.47434424499474 6.5932849770213116 1.315229609229009
35.91771672583518 -120.47242142997833 6.831713285984011 3.0207175128796404
35.916358796655906 -120.474349881064 13.091689485550459 3.072562984308538
35.91939149851087 -120.47387035395792 13.628356794988333 1.3227962281013268
35.9242504238445 -120.47172475737473 6.494708535877472 1.3893750209422036
35.92117242167618 -120.47231286985294 6.820471753910234 3.3622272234786705
35.92237772182455 -120.4715706097834 12.82288337736952 3.318814311432131
35.922553732253185 -120.47316235455895 13.679060431581963 1.383624421700194
35.92598695786221 -120.47416636946838 6.2755678152676095 1.0717346171495254
35.92747918373727 -120.46990955469633 7.096115168994876 1.5784235716065695
35.92870960035729 -120.47127823123444 12.980984929799893 1.5277744654012186
35.927332284126635 -120.47323083759181 13.550256901088709 1.057784925219077
35.903383413632696 -120.46399968844587 7.288981193465084 0.9879533054456912
35.90354539951868 -120.46896622937096 7.82325942292028 1.2119776518435066
35.90565364852369 -120.46884411889243 8.728215453952906 1.3806265160800726
35.904312646439884 -120.46529824015137 9.204548514726703 1.497916446410303
35.90420170274171 -120.46898499589226 9.598337105166257 1.5652615559457426
35.9043282790018 -120.46414150920772 9.987424710712071 1.5883920462384578
35.902463698179545 -120.46747503819735 10.395776221081531 1.5698633631988494
35.902350917154536 -120.46922850156336 11.18821985192943 1.506674230028489
35.90304653669792 -120.46506926954535 11.662742525994192 1.3923047821548864
35.90260368550228 -120.46919483560299 12.042175345510714 1.2242862355086424
35.902425856786536 -120.46802558763616 12.683364979192511 0.9995797906110339
35.908408188258186 -120.46531567602781 6.339516437277654 0.8942954478445265
35.90724564320243 -120.46893248199027 6.824136824189656 1.3791291415059164
35.90952268129005 -120.46703366541324 12.822828916288856 1.411438417645315
35.91007807504114 -120.4644288249853 13.740269338137706 0.9031647952497299
35.913480454083995 -120.46912473792626 6.391897411427321 1.2350831623233167
35.91448291045098 -120.4685444207147 7.1807819923705924 3.0254924210925442
35.91192634416926 -120.46437597513685 13.01751194478932 3.0638140053744576
35.914422628097896 -120.46765890137209 13.664923048263107 1.2405912239512429
35.91731866291604 -120.46860366891062 6.550269418409802 1.3023389196021853
35.91681627172168 -120.46893278314761 7.132825781845001 2.9465110483715278
35.91907845641467 -120.4672049651803 12.842859547330765 2.8957809651807134
35.92013312581377 -120.46796449779589 13.684841688499004 1.2959739717804142
35.92412012793577 -120.46443031093062 6.293338179079667 1.0105430393856474
35.921063995556196 -120.46757954859847 7.184004844307213 1.3206034123067116
35.924192498006555 -120.46488613347844 13.144329941675558 1.2774466101877378
35.92345213639492 -120.46700613204119 13.689048061470446 0.9973678292947765
35.90603966473879 -120.4626982577531 7.099151321368389 1.0426356812480881
35.906709876517354 -120.46299260869165 12.77663003491996 1.0663044092431921
35.909673256507226 -120.46034877575893 6.481570113534354 1.0780167186079166
35.908854294811626 -120.46188969797132 7.209402822886097 2.4820469564633156
35.90721092072536 -120.46380560401734 12.96038507911256 2.503875469409616
35.91071529454166 -120.46322627766023 13.268120161917976 1.0825873716617616
35.912618287034576 -120.45990518461039 6.522701342341049 1.1635020973931414
35.91222040459806 -120.46120109457091 7.041493559512482 2.404097269653761
35.912305736085884 -120.46326800395185 13.164648034024989 2.361874321714348
35.91139013989471 -120.46198373844794 13.513755271390412 1.158435529581965
35.91918507425211 -120.46143514454903 6.628195306454073 0.9389044812080297
35.91708034787571 -120.46288108045638 6.98464946293262 1.1439098511113217
35.91710445678002 -120.46266170563051 13.115134453956479 1.1115499345833744
35.917581249701314 -120.46193413540196 13.663607614842388 0.9279334474620424
35.90003614683683 -120.45482782352568 7.007946451519089 0.8938278680469893
35.89936584017003 -120.45630373690094 7.446246286299293 1.0464563043835486
35.90072880473394 -120.45722842280814 7.872403715654524 1.1978295436256674
35.89889195593354 -120.45518546843047 8.457743449075831 1.3952926738639004
35.89897889857224 -120.45588575686355 8.916120713949315 1.5443269022249446
35.900128244602186 -120.45601961407141 9.705873446413007 1.6301658293273287
35.898334603547035 -120.45798245056139 9.77632146647294 1.6616139136918913
35.898707147556195 -120.45809607798401 10.64286807386803 1.6425460562570084
35.898263848693986 -120.45517300588554 11.086882225492282 1.5686606037294912
35.90028004672218 -120.45491005946646 11.433692698839055 1.430041839158355
35.90147805841128 -120.45559846549104 12.038467122588754 1.237623856465869
35.900076789704706 -120.45392003954142 12.705125483658113 1.07804007523969
35.89994220778645 -120.4578372381151 12.791686066672062 0.9094857391176946
35.90404767947948 -120.45382671477647 6.286099027653174 0.9168312921709176
35.90320456063829 -120.45729129141914 7.232906140021499 1.6443514865627924
35.90397984825373 -120.45416425639685 7.378141251269685 3.678175311219779
35.9062844344502 -120.45647048637083 7.76489091146263 5.711465201465165
35.90560079270941 -120.45692012602557 8.430520028275856 6.4290636396416545
35.90463540538668 -120.45330083666678 8.91917556859254 6.719720381646029
35.902331127853884 -120.45763639108355 9.321587343702028 6.850451077935545
35.9023586522232 -120.45573435380854 9.956309787847877 6.8923091433448604
35.9042836022222 -120.45369586824819 10.628734351496556 6.8613110087977995
35.90230689753563 -120.45430257025284 11.048866350685685 6.741277688793965
35.905548887930664 -120.4559779350721 11.631380875051274 6.460663603375666
35.90407605531859 -120.45826904715682 12.213294636514796 5.7498288939856375
35.90651994702308 -120.45327598772545 12.54208057137087 3.7054694357427
35.90534167274247 -120.45434292068522 13.196919773069226 1.6523176965589892
35.90262666822624 -120.45636014003358 13.440770922882116 0.9195206399324793
35.90716296236774 -120.45519520718065 6.301759273303017 0.9739813767925675
35.90709651807893 -120.45336723600941 7.175761090363071 1.6209439292705698
35.909794884513786 -120.453879468405 13.222140124676105 1.5852111517085778
35.90798680714434 -120.45376458691675 13.687705500181474 0.9680681250678221
35.91490675874706 -120.45686072436514 6.384641104654414 0.8184429854884334
35.91195507170399 -120.45503822169182 6.871520285492025 0.9828917382920116
35.91132335880797 -120.45696073313881 13.189734384358099 0.9554436554681827
35.91372961746227 -120.45321125946198 13.596261972617784 0.8081580145830339
35.89274148013079 -120.45031153212376 8.006735073926464 0.8409394887136229
35.891756833920226 -120.45200297427398 8.683243780270859 0.9289653297583811
35.89238383771525 -120.45055141238629 9.013313778992705 1.0002178055724782
35.891572929856224 -120.44914921731761 9.526904575851505 1.0465133985631783
35.892996192557334 -120.45137488016003 10.101264261683921 1.0634551143007804
35.890255376287314 -120.45116464283011 10.724442123751196 1.049764448870978
35.89286325578411 -120.44887659577273 11.009154216704719 1.0064147298137376
35.890087219506775 -120.44741533958172 11.660970740663911 0.9373916786836904
35.89322717625614 -120.4479897591526 11.769148850051875 0.8503652024928788
35.89461368566041 -120.4473915330023 7.048509873822702 0.8497335113535149
35.89550303777715 -120.44866953168885 7.377432471121257 1.0594688642818864
35.8974006802111 -120.45160234907625 8.228210951328226 1.2645124931656255
35.89600857348402 -120.44944814910563 8.5215929480249 1.435232578322162
35.89407257050607 -120.45222323284517 8.837780502800632 1.556810156783797
35.89453108089063 -120.45228422113242 9.398154036017578 1.6281449212969274
35.894004653152 -120.45012814506842 9.796832598719911 1.6523913666528827
35.89454309367385 -120.44957931788562 10.415973025577193 1.6310594738463315
35.895211688986286 -120.44927424214055 11.163723009130193 1.5624097847217104
35.89757828711777 -120.44886042691691 11.714514037547868 1.4429062509999195
35.89651498555469 -120.45267963693374 12.236175656129134 1.2730088049192811
35.89722368395893 -120.45104166832539 12.27794520770539 1.0670134565576221
35.896966591253076 -120.44770874025797 13.048598716940662 0.8551253572202814
35.898180093154934 -120.44949257350711 7.2310919223879155 1.077892626267277
35.89870520548858 -120.45154662391164 7.398061356633676 1.4925221471639427
35.900198830020706 -120.44799610825574 8.217079778312467 1.901696441407925
35.90021125090134 -120.44791568357991 8.396593193415299 2.195581315089584
35.900349665820144 -120.45194282387664 8.935502277870015 2.3729092801693827
35.89856594790429 -120.44992741576739 9.334838703667586 2.4657244101820637
35.89836439825806 -120.44744484862515 10.139612641563668 2.4945154163130194
35.89918868839789 -120.4482944589499 10.647697078736265 2.4655773408107406
35.89812305732286 -120.45212974361402 10.753526352002348 2.372598505394653
35.9020305245758 -120.45235345823701 11.592873360402939 2.1950867080379686
35.90151544582162 -120.44879639088123 12.07894340298915 1.9011080425418925
35.901543819362146 -120.44972017982614 12.284600939721505 1.4922214384024313
35.902225362403755 -120.44751432500901 12.900467715080469 1.0779927041154307
35.90494311927689 -120.45169022664848 6.9903397694117615 1.0245494602084022
35.90553143180242 -120.45209587075468 7.265932724379495 1.1602815646082654
35.9050601379254 -120.45173184655322 7.754820221342273 1.2853980512395653
35.90656025591592 -120.44776254067148 8.542880287737473 1.5193220121735007
35.90667499216963 -120.44903525436709 9.099928150229186 1.6909086785242704
35.90462521001133 -120.44769525446819 9.41129717020356 1.779694559390666
35.90256590175273 -120.44887860828048 9.849678194819552 1.8019667189442115
35.90269890826756 -120.44835639285743 10.43821545373477 1.7644264802392313
35.904050215956126 -120.44830034607092 11.13175913707039 1.6607509418570423
35.902627947421756 -120.45210491396669 11.31363998538889 1.4758543791698324
35.90474903355607 -120.44984057982569 12.224111282766406 1.2351453069723504
35.904992217427974 -120.44905691184489 12.647472225107059 1.121213129209252
35.90258921766225 -120.45242326850814 12.81463730585129 1.0073657066934463
35.88712043227921 -120.4422098575209 7.483347182879149 0.8898137920658414
35.886043260931466 -120.4466179465917 8.101582856730829 1.0145120201314242
35.88638914934687 -120.44212000501825 8.495813677857374 1.137142112180012
35.88473171999504 -120.44551236683397 9.165399164108452 1.237404303325628
35.886930556368306 -120.44591127940235 9.563516943289201 1.3006800594035457
35.884616731704654 -120.4455031033191 10.111421574587467 1.3234506460667343
35.88851359083112 -120.44195730116165 10.324272039780736 1.3054896435748433
35.88590840736256 -120.44312621413916 11.021335841580676 1.2466829666277326
35.88812369221273 -120.44200078264534 11.386775417450332 1.1499484461999068
35.88837542236999 -120.44262840856469 12.117606727156396 1.0287964818623652
35.88627585661582 -120.44271162407622 12.554382646534998 0.9024693414331565
35.891135352613226 -120.44529930515966 6.91028311477436 0.8885193500587109
35.89271408658322 -120.444150101413 7.52026775231395 1.1097020462105758
35.89306921097776 -120.44328289321732 8.047137166685351 1.3256473202802717
35.89276866111581 -120.44489776794211 8.272324213343405 1.5049366750313318
35.88919489993022 -120.44607728848574 9.07962587222393 1.6322852160718797
35.89250575980725 -120.445421255821 9.539174364548737 1.706626792230705
35.89026683910013 -120.44276054119678 10.173867881332898 1.7313109119179328
35.892147954232804 -120.44492588234993 10.723636764892213 1.7079813606457799
35.89157531001993 -120.44345384284975 11.191044299876966 1.6348697412579383
35.89089077420874 -120.44463362441176 11.738107344707963 1.5084412668044198
35.88998862308102 -120.44461643117643 12.2410718682214 1.3294982857381532
35.89303013569615 -120.44443208375057 12.365414842548104 1.1131546206107688
35.89235597399767 -120.44374500553504 13.215797880117524 0.8910560437897763
35.89532429497311 -120.44480774589766 6.924465436601495 0.8931863198753998
35.89520623775725 -120.44491704878976 7.705985614528126 1.1178391179209242
35.89708101495132 -120.44667989378723 7.831992951812219 1.336884049024485
35.896125405602795 -120.44405965314682 8.331125402220543 1.5182377374835825
35.8948010875263 -120.4449282856738 9.132073472239036 1.6464769984543433
35.89709541362602 -120.44713691064955 9.583121536482876 1.720734431995086
35.894174367586196 -120.44224081968466 9.76275795138156 1.7446115941965428
35.897162380163756 -120.44184412846592 10.324811527562353 1.7199054032537813
35.8947361079147 -120.44630437151031 10.968725214781541 1.6448914940192827
35.895345310426094 -120.44718241699269 11.42014256664979 1.5160731862250296
35.89409727162462 -120.44673552367298 11.765030711975363 1.3344596759924143
35.893827180206266 -120.44430060788257 12.303768518433717 1.1155602111183183
35.89504316523551 -120.44605755977864 12.953908443389071 0.8913373900329441
35.898012088222686 -120.44238505960452 7.042549104955963 0.8051026809862459
35.901003729279026 -120.4465831860348 7.4384205318565195 0.9806451107507215
35.89951478914272 -120.44537312727869 8.204036823628785 1.1501902120156955
35.898217480037836 -120.44372045084695 8.550032826843678 1.2974775327644912
35.898178827951284 -120.44386868721092 8.94822587007018 1.4061796222468717
35.898433845016456 -120.44679224303083 9.34115343487116 1.4700085756309187
35.9000144487431 -120.44314156556678 9.994919844265583 1.4896126777193306
35.90224618464596 -120.44697509780976 10.426091491571809 1.4660169104278478
35.90059050564864 -120.44664527834034 11.242579072740583 1.3984860751904773
35.9014737581853 -120.44418751458464 11.402092412877732 1.286874274074554
35.898772192682245 -120.44497166476538 11.99151786974885 1.1383621449303425
35.90145571779532 -120.44257664987269 12.352305328899575 0.9700744170248814
35.883945061515355 -120.43728141138071 6.756151923469118 0.9124370706040803
35.88094554964219 -120.43990808067997 9.312199546819874 0.8308991521028373
35.882902345657 -120.44041877258208 9.892676166785636 0.8684643059224971
35.882776737572506 -120.4390523337631 10.595178328729926 0.847286895873262
35.880501633271244 -120.43684083204654 13.06535121880047 0.9330310687035634
35.88852051435443 -120.43850994863458 6.462412670169687 0.8053257352737956
35.888017128611615 -120.43644248031735 6.765086428466068 1.1368490400992526
35.88764718369828 -120.4408639174038 7.546528793334241 1.5842088983365328
35.88628178192725 -120.43684595536143 8.004009562744175 2.0266296242266018
35.88836854968953 -120.44070482450279 8.727522782639513 2.3419597855188514
35.886582343718416 -120.43642869139791 8.863267168306391 2.5303238341157384
35.884880245228004 -120.43750520549403 9.734244527214457 2.6286475845657935
35.88452575183378 -120.43776392553366 10.186917494195843 2.6599435697014533
35.884518994393275 -120.43946532195298 10.594756724624053 2.631171350102873
35.88483979387604 -120.43944208487589 10.813791523780484 2.5352964824336994
35.88547432696233 -120.43916150851909 11.520023235771346 2.3490694580045575
35.88436379764398 -120.44057176489684 12.005583023106269 2.0346462644852537
35.88460347860764 -120.44115122017486 12.435865481106283 1.5901765349311674
35.88759371550703 -120.4387396274867 13.202930902290888 1.1393076264687811
35.884394364664836 -120.4367108989979 13.62461291127231 0.8059456427479508
35.89069330794883 -120.43875163850045 6.8454601325328674 0.9237510805192227
35.89090861388664 -120.43912175250378 7.2611081507735085 1.1759867512658158
35.892781227495014 -120.44055985757666 7.783235473525909 1.4221603964330147
35.89153281688839 -120.44132492058908 8.534278103970024 1.6195152865408329
35.892880237183135 -120.43806148438624 9.174432614756956 1.753692828288601
35.89039741794885 -120.43770573249707 9.338827315333774 1.8290600739965137
35.89281595928145 -120.43696940984196 10.016755311711348 1.8523704648607073
35.88874144515337 -120.44002366908548 10.507276276284312 1.82632688145023
35.8909742174835 -120.44019639001029 11.195230780198163 1.74842003288133
35.89316720457736 -120.4362377164747 11.29456494209574 1.6122402236351172
35.88966894302954 -120.43632557556687 12.148729449542026 1.414050155019316
35.88999827056596 -120.43832378391332 12.613840067645647 1.1687788130548065
35.88922668176839 -120.43704394936543 13.218065607891274 0.918579021965919
35.893747173799326 -120.43910244476 7.504160678652116 0.8296518459016434
35.89369684673563 -120.43916243328515 7.872284025236423 0.9507148536151222
35.89534750620436 -120.44139756467534 8.655146198013046 1.0569521588670399
35.89575278790767 -120.43894268568235 8.803506749932291 1.1384356879179884
35.8950000575216 -120.43823769175728 9.630024891523773 1.1883573673600552
35.89347255083029 -120.4394993721105 10.122550377756967 1.2040721877550724
35.89691277447896 -120.43828988578483 10.534107433559802 1.1851459243895155
35.89647320619238 -120.4399251023605 10.904808403824246 1.1323031561596684
35.89705138435803 -120.44087810971472 11.380331883098512 1.0485910194544672
35.89335900919795 -120.4402255319122 11.86229532917921 0.941336847619916
35.89770418634967 -120.4367576515631 12.274656503614274 0.8207922891127887
35.871777037357305 -120.4333856260903 6.314036759448253 0.8223333201024986
35.871728965279964 -120.43472214248398 6.8499430945899125 0.8911714081680989
35.87510309965936 -120.4336787111556 12.82419438221253 0.9149063963064074
35.87140690218606 -120.43247358966119 13.452233047459975 0.8325722430482222
35.87615553605376 -120.43390153848549 6.568038825645732 1.0015150038385034
35.87559889872992 -120.43181320023629 7.232770536346103 1.474357159756906
35.8763782661448 -120.43412185033242 12.828282943047506 1.5104674526068385
35.878930181303076 -120.43547315766223 13.449935330468865 1.0086616046969146
35.884047155563366 -120.43289642154156 6.5389550785377475 1.0000735342562486
35.88168527543311 -120.43445011581359 6.973466554791903 1.82391214559093
35.8801047159065 -120.43100075240697 7.734738687852577 4.216744207257916
35.880674838704856 -120.43068953930423 7.76844185550649 6.623976644682803
35.882432271233505 -120.43561792776524 8.403845629222346 7.451904484426194
35.879766545268616 -120.43213882345977 9.002777068884592 7.784218648330412
35.88182699609414 -120.43482851168402 9.38529062147504 7.940008999714901
35.882547994929126 -120.43528364166812 10.135088193276793 8.0
35.87974925114269 -120.43512619800565 10.541038373935066 7.982135762578123
35.88002256100496 -120.43542957036577 11.095441675962274 7.868469958285786
35.88113143988257 -120.43157603853282 11.527876870835238 7.578216046324395
35.88350091003891 -120.43379803966718 12.159214109547118 6.788745536899765
35.881522211383796 -120.43452112143443 12.701061157469729 4.319892465412317
35.88196968275511 -120.43149178549865 13.213925160575773 1.8269948167642558
35.880541466627314 -120.43492993584123 13.539228562266695 0.998787162923273
35.88800383766279 -120.43195715947087 6.996433264574117 1.098056394911767
35.885457738619706 -120.43600645044458 7.449560404942858 1.453195385493745
35.88783461597554 -120.43248347231115 7.780344681088264 1.7976967362909835
35.88496716767256 -120.43461070203556 8.574515937990144 2.0854137787482556
35.88656258236162 -120.43582917134073 9.205783967564992 2.2586505830608545
35.885406417234854 -120.43377394427799 9.401948473768865 2.344323144689449
35.884934740727985 -120.4332007850008 9.950442698115545 2.365305507339398
35.88592669168861 -120.43352390211362 10.65998502267152 2.3287154273392283
35.886790081558836 -120.43060166332262 10.998774072816264 2.2278339327604075
35.88652362797527 -120.43182512324064 11.340344287845856 2.04094165598965
35.88729813042073 -120.43106192020785 11.974205074911085 1.7459624954246171
35.88504968966595 -120.43177001053257 12.324781587002299 1.413720210103266
35.88865325991616 -120.43213200490086 12.995481189402934 1.0810433656988032
35.870598060018835 -120.42900558322872 6.33881416965302 0.9525515125517543
35.870245259916395 -120.42586254091563 6.9343340938723514 1.0078327620345755
35.86875691729317 -120.42676980365073 12.91439303208488 1.0353656928589046
35.86865248360315 -120.43011782151963 13.481963606394341 0.9636985334854343
35.873715668174896 -120.42972496894221 6.383504962360802 1.2145094204937632
35.87249024375254 -120.4257838236804 6.836310566517424 2.1330138705984933
35.87412101811276 -120.42679613690007 13.190215538066164 2.1765594884378565
35.8741133214085 -120.42548011074433 13.460952141732967 1.2212142836288415
35.87766241255856 -120.42560690185454 6.68808729068156 1.2025145230234815
35.87751390269065 -120.43038068387396 6.911913861787152 2.803489901668945
35.87706317492739 -120.42697602842422 13.003811423785306 2.7978364831687315
35.87828900614917 -120.42702580999001 13.448505461309683 1.199411770780729
35.88022218431278 -120.42769273465734 6.538191705380322 0.9076428187670048
35.881288386261254 -120.42908994325727 6.789526216987053 1.4376639244487657
35.88405857340689 -120.42538534672025 7.611546077894575 1.339655321915409
35.883964776362895 -120.42821379890529 7.813249176184399 1.233932455152444
35.883263661936596 -120.42834143800002 8.401971585856698 1.7412519178591812
35.88198417053105 -120.42614645024868 9.033889427430989 1.9954269362215857
35.88041487020364 -120.42798329547949 9.699224361259358 2.110996438262661
35.88365173974322 -120.42620187791418 10.18432501440946 2.1427017123853407
35.88331915712503 -120.42862949428056 10.459024457928626 2.1044256934028938
35.88215799317026 -120.4268617754068 10.855004556718606 1.9828225808993114
35.883856341391436 -120.4274802588292 11.610929471341347 1.7249674530676704
35.8814930547429 -120.42804095436121 11.91865317524641 1.2268602904607144
35.882730076825304 -120.4265144202219 12.549378747331223 1.319798467909074
35.88181525831196 -120.42963512012973 12.879826851315768 1.409073607058785
35.88055236150842 -120.42522713989914 13.584314225499606 0.898781813424971
35.864219616096925 -120.42477351004875 6.439615792020484 1.0491583581894384
35.86245303701665 -120.42471087662189 7.004100902433188 1.1621244666373338
35.862637932035476 -120.42374053872621 13.050364663286247 1.1991247539957883
35.86491408161544 -120.42168292739841 13.306106338148581 1.0627308629034766
35.86874654739178 -120.42393826071658 5.793799311134206 0.8247629857929043
35.869851109062495 -120.42104270938867 6.571496330542394 1.3775328267417755
35.86867386938647 -120.42407032386885 7.150470927110451 2.6272413932652308
35.869402278538885 -120.42297344054542 13.12359958426119 2.6830745924662853
35.866915352840145 -120.42254441887455 13.404861434013801 1.385958994168524
35.870405279709885 -120.42486140946465 14.046078414997393 0.8265383686398592
35.87095843358973 -120.42379335988893 6.231260422920007 0.8004586933531965
35.872144580352156 -120.42216093591081 6.3471456580125185 1.3962286075474721
35.873854886106564 -120.42033868990382 7.169583486756492 3.4628016952072604
35.873142685021335 -120.42225439004716 12.756050937410416 3.445634890909601
35.8707295694112 -120.42269787674299 13.371960396637862 1.3925166734221466
35.87948757543827 -120.42478609322116 6.4664970363678025 1.0671835653676511
35.87768456730715 -120.42126094426871 6.9703370879315525 1.8201204597385616
35.87903108457853 -120.42450812494887 13.139436661582636 1.7774027329823343
35.87709061606979 -120.42084320577581 13.49377389122655 1.0572593380236015
35.8823477574732 -120.4205591437814 6.806384290456646 0.9525068547450899
35.88058642824782 -120.42082407303121 7.4893970099472655 1.0714737521886981
35.880547558497504 -120.42278588171241 7.757976771803593 1.1851126878234899
35.88272652681241 -120.4245472607339 8.552410609217093 1.4139270365873553
35.8822252304207 -120.42476426515694 9.040540889067406 1.5684954526356591
35.88144425277266 -120.42233284416955 9.442616800649887 1.64973801057114
35.8823912168125 -120.42164199018394 9.964294257020205 1.6740335842093415
35.88064343766577 -120.42477826693361 10.550590170374564 1.6471620891039045
35.8825873906553 -120.42144480829332 10.998014373784153 1.5638679012145116
35.88334342151736 -120.42144642736899 11.638515173270585 1.408853646835022
35.88038938584113 -120.42302553717526 12.008618767599998 1.1827909925921365
35.88084858018819 -120.42087020423948 12.484724334714343 1.063290569538101
35.883603557622145 -120.42368775851715 13.080540768774584 0.939072006669464
35.86133562729315 -120.41519621406084 6.591237785717529 1.1620203878051427
35.86077520634202 -120.419288940957 6.845417291641467 1.4316283238001517
35.86010804533595 -120.4186160917753 12.886224100175992 1.4763131823382465
35.85876646425371 -120.41512450393913 13.580351186281822 1.1769923500513884
35.8643076267209 -120.41662560133567 6.151658386954458 0.8873970442635093
35.86231449143327 -120.41673909956688 6.531212441530815 1.5190603576653086
35.864757940939256 -120.41436584834597 7.075914090759868 3.1367333891593225
35.865330562800544 -120.41750958573283 13.14363638634632 3.19262112323854
35.862368116479814 -120.4154665206496 13.40717086951215 1.5272843946685115
35.86344692334216 -120.41810216621114 14.15167528731909 0.8892954327499439
35.86822814876172 -120.4170749222036 6.082010307244632 0.865317395137259
35.867021700378274 -120.41716668292985 6.627884890968193 1.5264059771344085
35.87053252771355 -120.41393728637684 7.222773467494401 3.6262524086116783
35.86915781490028 -120.41598822777496 13.168530483324812 3.59032109796196
35.8674160108495 -120.41782326403317 13.518564257912722 1.5206927442663616
35.870138724936204 -120.41403051942251 13.899909039398045 0.8630407132665319
35.87403489745571 -120.41778937500793 6.304394094768377 1.1542204064431267
35.871054010962354 -120.4188646289021 6.83437326395481 1.762491323121727
35.87420970254498 -120.41701876285455 13.163379939307275 1.7112781800810821
35.87312808757886 -120.41784543895369 13.452694318212325 1.1410138028268166
35.849396676891864 -120.41354044794767 6.452493257773026 0.8223018950867729
35.85065807953381 -120.4115202512262 13.370363218290684 0.8374645121236128
35.85466486294231 -120.41292112226205 6.148026578065529 0.83431808056328
35.85276750873535 -120.41129175050025 6.5207702691243306 1.2735818857648578
35.85514271054479 -120.4128325420458 7.149268820879705 1.7458757368225524
35.85703807823186 -120.41378347605918 12.813242545581291 1.796972881098739
35.85692626104458 -120.4096888280613 13.325870062524798 1.2888819372904528
35.85368383311113 -120.41032024147233 14.047587322774682 0.8396312648394674
35.86024610765909 -120.4110918291821 6.065060854861016 0.9349172280803731
35.85999453049014 -120.40950234928759 6.37327362402284 1.6242818755925936
35.860647187420035 -120.40991608446726 6.986420758214439 3.56669726022909
35.86042630850359 -120.41365486718638 12.82533056523525 3.614287174991281
35.861485595924634 -120.41074780374151 13.704215735689973 1.6308331932357922
35.8578798520443 -120.41317129584405 14.24787006425327 0.9364868316384024
35.86556900987154 -120.41124949277035 5.815678029420862 0.9073178739359005
35.864959060618894 -120.41245059336521 6.734824190303913 1.58242576143594
35.865178107667326 -120.41198491607729 6.975676661496813 3.5093212442528054
35.865511489970444 -120.41358092130012 12.802971232821992 3.4586866962931793
35.863532655942535 -120.41041408851598 13.326430471427692 1.574221372653862
35.86243886717933 -120.41038050418918 14.147862676400777 0.9043880961192483
35.868101728429075 -120.41176677759698 6.415487225017911 1.1713087483978382
35.86873219444101 -120.41054542170126 7.121012057754746 1.6065403380681418
35.867813732578504 -120.41312736310628 13.001166641626773 1.5569065273664033
35.86858738953626 -120.40884039456701 13.364592950327472 1.1559583473394315
35.847320741726925 -120.40497250058297 6.292134345485347 0.9009575494607385
35.847198829450235 -120.4051833519231 12.86767666850756 0.8229757379785464
35.844567271886206 -120.4048366422567 13.453316972532612 0.9168660156510168
35.850574521717085 -120.40401170887267 5.947331734417184 0.8700267096559309
35.85191077343657 -120.40455679165792 6.709040003180954 1.3723486089300272
35.85139835014088 -120.4069006923097 7.1074860148306716 2.0849167795799675
35.8498285916166 -120.40556260674289 13.056978485776774 2.141448406998293
35.851364438894976 -120.40316371543949 13.559957092339337 1.387202706469202
35.850683865740294 -120.40290271072426 14.145490636287166 0.8750791772619129
35.854082325532666 -120.4061077709738 5.971950457936722 0.9644194096965757
35.85638646551702 -120.40672832276383 6.412795223329465 1.6909887714915088
35.85549966950696 -120.4041490386323 7.236211861511649 3.8831183366538555
35.85359349602462 -120.40439950989821 13.157845025872867 3.9153293613817177
35.85662941062741 -120.40570078765367 13.288760178860048 1.6951045467842898
35.856858519367854 -120.40581744370226 14.148640857813648 0.9653708108363261
35.861571815514694 -120.40524307184006 6.043019421155254 0.9252620594696984
35.85887224949813 -120.40752764133437 6.5392194727096085 1.5830286979358734
35.85851733591733 -120.40757355789749 7.217322342914193 3.2399727538655285
35.85748228932939 -120.4073492633529 13.050570476738699 3.1807542509594073
35.859124430869414 -120.40635679544916 13.451459083980293 1.572453076839022
35.860136363062836 -120.40793208484548 13.783219739441916 0.9215910255010317
35.865391764809154 -120.40602335460909 6.324572238085137 1.142293836596496
35.86496587521015 -120.40482841925491 6.890392666582569 1.4107581564606018
35.86509804959968 -120.40355355489429 12.764868071758707 1.3652989838402743
35.86464852011118 -120.40314967891183 13.620142293813531 1.125874741669381
35.843588188299364 -120.40239799787409 6.71579805554475 0.9731893548634086
35.84053196136039 -120.40093988261002 7.073343457364906 0.9527720281496612
35.84191570172793 -120.3997008797951 13.041415799072722 0.9883924008477112
35.840482641981936 -120.40196304914798 13.528833456716274 0.9894784498721364
35.84606094448185 -120.40225180402712 6.093897645362929 0.8924418414082501
35.846368999589515 -120.40173937562523 6.4298463366464045 1.452000728761379
35.84471294147848 -120.399387137914 7.21886257277465 2.4394415131902902
35.844420588607015 -120.40261393288415 13.033405175942331 2.4999116771179533
35.84508896552026 -120.40087528033257 13.374767940133559 1.4658000333894083
35.84660036441602 -120.4008813797295 14.159099716106745 0.8970095492614811
35.84906201481206 -120.40167565157729 6.027490237470277 0.975596017758351
35.85254803772456 -120.40055479681249 6.573536365808875 1.7204328094427153
35.84934314904766 -120.40072770389571 7.245772005684834 4.054334029680567
35.85039476406164 -120.4002445163783 12.977878481618484 4.065828638678998
35.85073679387136 -120.40125514222667 13.708888864524997 1.721741751295403
35.84957522933711 -120.39748260840771 14.236880934281869 0.9757899257818162
35.855834399916816 -120.40140832474668 6.031859282784563 0.9223183766876284
35.85542601658041 -120.4015639978939 6.65349231605419 1.5431795713853353
35.85411916220765 -120.40231249030022 7.055885240144583 2.892892210619113
35.85678577608059 -120.39859865121211 12.967278105021519 2.8307372671242663
35.85666487632493 -120.39777284436128 13.603918296817428 1.530586953351666
35.85474881277805 -120.39870528087827 13.970534505043638 0.917937229315196
35.858161333948004 -120.39763873919581 6.4938838627507645 1.0841512411248941
35.85928907294745 -120.40099722676322 6.905843823953716 1.2077613566934597
35.86130262090708 -120.3991725681247 12.792568737553264 1.1670213098199764
35.85854481907792 -120.39858606032656 13.41131957713283 1.0673387781270633
35.8376501396895 -120.39583407909038 6.704285894021363 1.0325081898301787
35.83579335577174 -120.39484707852829 7.1791554008234195 1.1234996835710729
35.83483172970975 -120.39450821834386 12.898682803561112 1.1636219849217069
35.83727009698129 -120.39506510709884 13.663087813328051 1.0487861452931941
35.84077811729091 -120.39687986084586 6.105389951657926 0.89881527729361
35.842394891965256 -120.39707673416054 6.4478364364977185 1.5066092890420137
35.84224282491303 -120.39227558190015 7.1251599059953525 2.7942311230513894
35.8411240940306 -120.3953032183198 12.788657797652185 2.856007388407898
35.84012862161853 -120.39323638511486 13.31873694589004 1.518829551041773
35.84016056712896 -120.39585818566698 14.07141477056758 0.9027492643153743
35.84421174155513 -120.39521134021983 5.857300410056128 0.9684573965385395
35.8449238435911 -120.39347102613716 6.618268847560613 1.7130856389338676
35.844723187859074 -120.39191706905278 6.855856168898092 4.057144327052176
35.84716406338434 -120.39272518957296 13.029908314080567 4.045856289752789
35.84777830777871 -120.3918891839322 13.551296670190563 1.711481990940826
35.847426107435425 -120.39700306125054 14.161676462109977 0.9678611079243618
35.85078608187846 -120.39532695748834 6.192192392567291 0.90158743534786
35.85262244369937 -120.39347593960343 6.377859524011535 1.4724353178776357
35.84867333713014 -120.39540335373457 6.813411781190369 2.515481286641102
35.8523529867543 -120.39381583618032 13.151134798948748 2.4546083980197766
35.850901004523166 -120.39626977938288 13.404663745299288 1.4582951022706951
35.848631926274464 -120.39481709283466 14.223561875512528 0.8966021462563468
35.8527526367573 -120.39183998957279 6.428765976581493 1.0076850187711215
35.8530790621333 -120.39197188967373 7.18398858014303 1.0117636103336016
35.85294590233273 -120.39238623397947 12.797307212801346 0.9756575618017388
35.854929565039924 -120.39506805029373 13.673716460382309 0.9909537703672792
35.832256773385 -120.38714549620252 6.487283649851683 1.070488469218324
35.83189154350999 -120.39002774857754 6.759319044693424 1.2962651939499794
35.8305478553342 -120.3891625097224 13.040038921732553 1.3409010627630884
35.83234034771401 -120.38732713096798 13.536696128457786 1.0862437672276102
35.83776960679224 -120.38928528281632 5.752420777560702 0.8858449939637265
35.83607645998636 -120.38921884949805 6.411442380405027 1.5281099463096355
35.83587841882288 -120.39098287898803 6.888781740138401 3.1198832906887173
35.83582632926832 -120.38838899742815 13.238426351686412 3.1787901370920877
35.83684031795811 -120.38997913063118 13.631738352891713 1.5382977513595566
35.83666748674625 -120.3898570327665 14.17495285679426 0.8890593981662985
35.84351002559252 -120.39013411177406 6.02803914233543 0.9424984990967246
35.8421480793751 -120.39129175769446 6.464470841037639 1.6679478607579785
35.84288050702839 -120.38619489219629 7.163381005721309 3.887388813990857
35.839329750907915 -120.39077502007059 12.965729908344388 3.8553059741957783
35.843178536680824 -120.38845439788889 13.568052319164707 1.6635707052087731
35.84256412967662 -120.38680221278875 14.06570763215022 0.941175121524154
35.843952709714024 -120.38879661995065 5.857015146760356 0.8653985977076837
35.844985155375085 -120.38871551349521 6.280331594017635 1.3770420282971747
35.8454164259503 -120.3868420269325 6.88477788983182 2.1361177204208683
35.84799419871879 -120.38901508247703 13.118963723594186 2.0792401155228086
35.84536862804534 -120.38710164457093 13.329622425065619 1.361909390013084
35.84737266578626 -120.38913146534368 13.93741686699176 0.859983956308794
35.84829652787088 -120.38713527425227 6.263684121028225 0.9200450688579623
35.85073030118327 -120.38907063360269 6.865969528474957 0.8284681872949757
35.85217517654627 -120.38918813680363 13.56371619904237 0.9037907671805147
35.82825212791733 -120.38242847403644 6.616191387845273 1.0743517250487515
35.82578648889047 -120.38186690941329 7.188149665618899 1.453941230066778
35.8263732211141 -120.38446338396497 12.776220546199017 1.5022351937761058
35.82858358683351 -120.3819618130156 13.714854831998595 1.0887979145931068
35.83082332353555 -120.38216718414887 6.2017726673116425 0.8493233812895695
35.83407223784447 -120.38072570605564 6.496000442601682 1.504147198089873
35.83114655375045 -120.38202634894448 6.7880591004917665 3.3647867694243745
35.830923008229895 -120.38592719968777 12.820534228173358 3.4151632802509013
35.83055963908318 -120.38276471458424 13.531531004428789 1.5119651684211903
35.831035779422876 -120.38504036474053 13.78095290208329 0.8518126157235734
35.83507866679463 -120.38167543126531 6.189095389082951 0.8967684407338542
35.8372380086816 -120.38509020110484 6.614742366846371 1.5824874262875177
35.83618515769346 -120.38478018041188 6.782445882395178 3.5606758708604986
35.83821451626858 -120.3811495496495 12.93117563494021 3.5131842132353506
35.837590247453285 -120.38387811696846 13.427731330391115 1.5757727238692845
35.838579111803256 -120.38060934092267 14.142642704825535 0.8949006831353747
35.84151721219959 -120.38219893154319 5.946112814432888 0.8158114424418749
35.841472475534644 -120.38291765390137 6.4475708689870626 1.2618269757680036
35.84235512105506 -120.38095679925782 6.91888154748171 1.7700821007692977
35.84318403747829 -120.38397950776744 12.867411908186861 1.718820586358384
35.84231136495159 -120.38431864576631 13.28010926368808 1.2463732991659868
35.841749723928 -120.38538018266152 13.93557887699896 0.810231432379901
35.846348402592085 -120.38589310871487 6.4586859462466055 0.827174050457349
35.84771580545022 -120.38461195207255 13.632008272685942 0.8117978439679804
35.81595257176869 -120.3756291928627 10.193033573128579 0.805150262236599
35.823467652798506 -120.37674124644128 6.2730996687476335 1.024528387481226
35.82383142573523 -120.37756364794721 6.865951255828521 1.563137412450278
35.82534008034527 -120.37948890709373 13.231089708104495 1.6111732966577572
35.82163209198137 -120.37887388789801 13.687058965901402 1.0364011255419088
35.82617793797664 -120.37881815302266 6.522917411598497 1.4157558767721243
35.828160484146494 -120.37756734765183 6.928126190672656 3.4405036414774
35.82866092539473 -120.37602156977844 12.906007380089383 3.476178262205731
35.826961956894905 -120.37566654846106 13.28239479862547 1.4211422885605423
35.83135717994739 -120.37969320551663 6.134245776939677 0.8310139868717961
35.83049007460341 -120.37757751559549 6.4355149720725215 1.4535448206069368
35.8335176213973 -120.37643497692854 7.236277835708577 3.1026597231457114
35.83355311881171 -120.37618205404219 12.7879046859091 3.0471967895960943
35.83171888094151 -120.3777579294096 13.507669041204721 1.4454094762819405
35.83377353380196 -120.37538862481358 14.118721471225923 0.8289568695923235
35.83494786872756 -120.37630229518976 6.325325283856982 1.1330143888999817
35.836165358414455 -120.38036812227834 7.121667713885168 1.4283068537685761
35.83859734549718 -120.3759034402004 13.093937646487415 1.3838744723240861
35.83702676263251 -120.38003257497797 13.518918651572722 1.118135185586756
35.814653344776524 -120.37380823072498 7.574826978639218 0.8976162502820283
35.81276369757475 -120.37094324120451 8.033278809004756 1.1169000781500023
35.81377473189932 -120.36994430931433 8.57639154441847 1.260261206581769
35.81495092967947 -120.37078158307779 8.885385080553153 1.3728124711561052
35.815864319451286 -120.37202810652387 9.415754183176269 1.4394154193369313
35.81355069447077 -120.37173150678082 10.13066867720969 1.46283844179513
35.814655551532546 -120.37446845196314 10.451264474783839 1.4454966831911749
35.8155209291284 -120.37328427731997 10.810015295808762 1.3845106064566002
35.81332651965577 -120.37098044640484 11.402751113533816 1.2762467959189931
35.81266534786783 -120.36951422563747 12.190622013129474 1.134749984628768
35.8144700827652 -120.37237317443495 12.300220046387091 0.9128363891938438
35.81983728217704 -120.37263905121998 6.620931409089222 0.89268427252791
35.82077045573401 -120.36960527791092 6.814998890891434 1.5722694174724363
35.816901667916866 -120.37133007350485 13.066079456749442 1.6065464454660712
35.81862852313697 -120.3719147537787 13.432214657294653 0.9013752944485104
35.8252848154359 -120.37301011905384 6.286896414404328 1.2431142268508388
35.82387123139802 -120.37391617907856 7.054367610652363 3.17719962283872
35.82437930450531 -120.37220719526157 13.137764658068445 3.1945270029778583
35.82315550484658 -120.3709603416601 13.402804006173744 1.246776365099844
35.82950219813873 -120.37398268283697 6.672954402612653 1.2834464556199565
35.827160024997525 -120.37220524053208 6.770889298804534 2.5474808403538907
35.829797673847914 -120.37218613018774 12.973625178596844 2.4937228808059153
35.82886547901516 -120.36967126520835 13.377243690696362 1.2756566914245335
35.83398303563114 -120.37244323944549 6.654759972490608 1.0037806870109816
35.833760748494534 -120.36940032567978 7.085774878674445 1.1396909279537286
35.833580865604276 -120.37240429426794 12.858516448528475 1.1038255442227283
