> GMT_LATLONDEPTH
> out/cube/20240710A_MSMS/PointSource/FF_4days
38.49604437208328 -119.52603995717507 6.278760433157327 0.3937990752159017
38.49796707865684 -119.52438739396199 3.4853489356915093 0.44212360093588765
38.499428922820954 -119.52519121696054 3.857138241352376 0.6832760230222963
38.499373365942745 -119.52669896077305 4.292549413455546 1.0363575143855002
38.49958918288977 -119.52657579972798 4.969715749666838 1.0635890920053683
38.49742030045054 -119.52523981283242 5.553487852689346 0.8082648864913007
38.498746248036134 -119.52488669595692 5.761818884641463 0.5003517842416276
38.49760095810395 -119.52498513772564 6.32626649329642 0.3264800986408221
38.499784464573054 -119.52634701438448 3.685269358668506 0.40839462610908106
38.49985887944581 -119.52674672888364 3.9289545058755335 0.629409628835491
38.499626029160225 -119.52665608329971 4.535353817886472 0.9453346232893801
38.50123175856225 -119.52470867148172 4.954791285843515 1.0810556522046004
38.501245530774334 -119.52406587573672 5.731303467261226 0.8543046922337263
38.501823360619994 -119.52433526306662 5.868271677372854 0.4689669561366405
38.499768943217035 -119.52594865658936 6.46224755920131 0.21410336484335835
38.50113535373157 -119.52620616030904 6.761199374307932 0.2992864492720658
38.50408126739691 -119.52638489700847 3.637074488838797 0.3730357670634959
38.50362948746576 -119.52546551931471 4.151592374637652 0.5888321153352669
38.50287208570321 -119.52496625445583 4.3430843856347225 0.8672177768582972
38.503772715316344 -119.524074827745 5.011324241227781 1.0924572912015642
38.50278422033451 -119.52421790560595 5.6679138399177855 0.9070097502481994
38.50395154861861 -119.5267364355998 6.1614581038672025 0.4260655745504178
38.50483679107192 -119.52503217228909 3.448079746884188 0.3234904101204156
38.50446031117214 -119.5255254037029 4.187968230840488 0.563109907717876
38.50498374088938 -119.52465090487271 4.6808342063810455 0.8366206098929279
38.50581519977205 -119.52661328581537 4.988961746141925 1.1028436281222116
38.505021002895774 -119.52502403988866 5.52961049156331 0.9313110821982131
38.50438012893884 -119.5242289421893 5.777959518568104 0.365163551595611
38.50724843826428 -119.52451253666989 3.4657159370393265 0.25339360690151935
38.50786704659357 -119.52625081421253 3.7891540974132685 0.5375193479392268
38.507065777358115 -119.52563528923979 4.543521200293304 0.8214743023433633
38.506832692502265 -119.52684393525958 4.944392762770139 1.0870349936509944
38.50802379491139 -119.52402282553192 5.545673458664422 0.9214412474246568
38.50825423453857 -119.52416625408108 5.974002320788088 0.28848017357061206
38.50931722655839 -119.52632941125505 4.121497171928331 0.48957053191297956
38.51076619102627 -119.52542200739023 4.51209203283242 0.7900214501386276
38.51057161801393 -119.52602835153331 5.010621425757828 1.0516880456088233
38.50872424833436 -119.52592564294292 5.343927897728834 0.8786205270999335
38.51008311957079 -119.52587542326555 6.073442758597548 0.2169405445245648
38.51132963038835 -119.52589212858022 3.8909439993655264 0.41255986787528753
38.51126886727229 -119.52401911299228 4.725638115854729 0.7383268997399015
38.51123022098554 -119.52466956647842 4.893729512743852 1.011689655476558
38.51246573754155 -119.5246434214585 5.514361973332166 0.8435085640870102
38.515090921229316 -119.52593690767984 4.04585075461575 0.3200787634588125
38.514518794005866 -119.52601319545082 4.547132392400233 0.6625225411740817
38.51379283726633 -119.52624372120451 5.159033164992154 0.9558492077655868
38.51436134865834 -119.52487206424198 5.39879199657095 0.8129179511251007
38.51677632301558 -119.52483948978438 3.774056509645015 0.2374222384727852
38.516707096644645 -119.525770536757 4.367648704181854 0.5771416471204373
38.51637609147522 -119.52557929528119 5.032587298314096 0.890720568412995
38.516577521972906 -119.52404755304065 5.441181004067135 0.7932038889022346
38.51604449443107 -119.52567997400458 5.965167731247054 0.24010801227605502
38.519272228198005 -119.52639999250817 4.631730393198775 0.5110965230379532
38.517686674733824 -119.5254628656693 4.81107456507593 0.834076525047434
38.51947643310322 -119.52516549233177 5.385876657428787 0.7718244617238259
38.51907291010886 -119.52626577909838 5.8223248338356886 0.3176097969982759
38.52120601524897 -119.52610741605686 4.459238186678226 0.4784502313575
38.5218547392587 -119.52643976803995 5.013739614180799 0.7890495684772402
38.52201911789585 -119.52471754883936 5.382279896224288 0.7617158146296297
38.52205708127321 -119.52600489141903 5.778511391374074 0.3884089692970995
38.52213836801674 -119.52626410725247 4.337776268276703 0.4734385133786133
38.5239014331985 -119.52477634373636 4.807544643777278 0.7496613613853593
38.52404693523714 -119.52444123263285 5.688338257127147 0.750039572424959
38.52384451138933 -119.525956003913 6.021819477591228 0.44039677673970334
38.52603984982894 -119.52594995366421 4.260708634405221 0.4787641282102963
38.526428649072706 -119.5250740634552 4.873845508585779 0.7181101231747568
38.525743481252725 -119.52681110327387 5.382774520957731 0.7379225699699037
38.52650015286394 -119.52605732359027 5.7795809099399875 0.46894233928320966
38.528734755357654 -119.52677173043006 4.415156157915068 0.481001579173201
38.52756768829962 -119.52406428725156 4.884445071879135 0.7000979890070516
38.52824507797166 -119.52500500289736 5.500738662307131 0.7210002453609718
38.52734835340424 -119.52418953415905 5.969132932435073 0.4866756398775269
38.530304586976094 -119.52669580832068 4.71519716736842 0.4824637194904935
38.530264751395485 -119.52641542295352 4.908603240570925 0.6969656363493281
38.530463749563786 -119.52578827263427 5.558746442963694 0.7143672419919931
38.52995561535662 -119.5242398198304 5.88449013169143 0.5172678821040434
38.53140056577673 -119.52479837008649 4.476884979293491 0.47846676499106944
38.532803906077326 -119.52635386106186 5.08347012991284 0.694192475038039
38.53195612943491 -119.5251357456934 5.259307749877303 0.7109681885653817
38.53182279843588 -119.5253056713648 6.219215332474581 0.5738843572866269
38.533797251847126 -119.52561501416508 4.739529417854547 0.4550025197671541
38.53407675418141 -119.52489175452268 4.989861036184968 0.6793834658430415
38.53505504522658 -119.52580015915555 5.639178151017152 0.6987594946409158
38.53420292055557 -119.52675213341608 5.815820297834535 0.6431294552760444
38.53462588680877 -119.52665147879885 6.6867350489813795 0.25891839680747525
38.5357271946869 -119.52683373424188 4.272391966465571 0.4042042345835166
38.536301789355804 -119.52612582802627 5.21051919943717 0.6487456239822043
38.536565591512975 -119.5251380118229 5.614060984560685 0.6807696067594207
38.537892877002754 -119.5268572561423 6.237056513583765 0.6932573508086695
38.53707366949763 -119.52603966462097 6.736045796060216 0.36278343057200885
38.53999164684533 -119.5255982756471 4.504670254520861 0.3350498552070493
38.5400213731816 -119.52405643190775 5.039292382606665 0.5975676496341901
38.538766912844835 -119.52403626208623 5.415765671322055 0.64931257900627
38.537957764909024 -119.52595474124585 5.886380942782531 0.7172657318796243
38.538874562701196 -119.52555788472115 6.459504577078399 0.44904044267614895
38.54152774843691 -119.52523414123816 4.963740621981643 0.5328634047817162
38.54086037636727 -119.5252084884027 5.559253533970426 0.6306393553974138
38.54141026319085 -119.52633801046214 5.819298394584055 0.7354205895774666
38.54168572630289 -119.52685638555542 6.541070260641046 0.5219793240362249
38.54318759024512 -119.52628173500564 5.6078721336280575 0.6197338693957382
38.54430595814161 -119.5266376493074 5.78611391047432 0.7336436409711181
38.54297540503055 -119.52656377593465 6.527126063305427 0.5766079176985346
38.545115268932534 -119.52618232700672 5.797583208803803 0.7133461119591342
38.45732168043077 -119.52157100992304 4.527853606117293 0.6809832447342978
38.45936412289812 -119.5229757313703 4.114165844302058 0.621906813520467
38.4611601381526 -119.52115417092745 4.581439770192847 0.694266752572719
38.46276378747808 -119.52174906284259 4.110000960022421 0.6300415467510944
38.46307725444813 -119.52391116179456 4.367720633549132 0.7066669194654978
38.46136368550548 -119.52327959556986 5.100799928124137 0.7683586262453441
38.464863179527384 -119.52296889790436 3.920745958822915 0.6301877243222156
38.464925899209796 -119.52140361536844 4.260952901939431 0.7097083480213933
38.46459898952841 -119.52287299260337 5.066925111234877 0.7977601017299597
38.46653022746996 -119.52234052222327 3.3322443872052356 0.6602987941570483
38.46668819278606 -119.52204424502234 3.8302730272947696 0.6036112834095214
38.46712063719163 -119.52381778830076 4.314843414419367 0.6916600348262973
38.46595562644776 -119.52114043191335 5.14328260292298 0.820035379909126
38.46688723640788 -119.52203907524485 5.32518088988083 0.772395515001189
38.468282216044365 -119.52337160245305 3.3207910382033363 0.613713964225611
38.468363583302484 -119.5227357231906 3.7928351059343313 0.542985780005376
38.47025031242574 -119.52169103988759 4.716818882911094 0.6454507795855182
38.46880396673661 -119.52333800702468 5.24194557856973 0.8287045534907621
38.46918425707149 -119.52335768949492 5.641872707658575 0.7785127009063466
38.471291743474715 -119.5214402436266 3.4083833006308075 0.545426579964567
38.47182620661391 -119.52349105256688 3.8282908318016613 0.45805782968131653
38.47209882327364 -119.52177198821492 4.344820438339572 0.578758537695801
38.472411403749554 -119.52123433831362 4.91923601918796 0.817749716052804
38.47241046451566 -119.52216380626243 5.744076865564337 0.760362653176801
38.47401571602038 -119.52344339120094 3.4123513369159513 0.4601304795308275
38.47435526671519 -119.52395328281484 3.9450639756709234 0.37384611320868105
38.473342653397545 -119.522088260436 4.736746671208793 0.5234216041796834
38.47482801386214 -119.52396838492437 4.998992456900878 0.7885967831970311
38.47354284972547 -119.52235764533306 5.374149957394754 0.7049944448632421
38.47309227698322 -119.5213675677921 6.083499189097969 0.5944175982394956
38.47641697014475 -119.52189150513699 3.0850204882115113 0.4031430107782364
38.47599317204225 -119.5234106616042 3.4401038915563458 0.36625820765493783
38.47604952340328 -119.52261156681251 3.9325260869719205 0.3223298599290021
38.475407846617486 -119.52366426982702 4.51709964623219 0.5191868994060475
38.476667481886736 -119.52168103274413 5.037493707787156 0.7557198349978672
38.47646781935907 -119.52312460201036 5.56669780287218 0.6049867181597302
38.47690627621753 -119.52305218140813 6.129082331305986 0.5511550146157654
38.47880186384439 -119.52233039651523 2.842003198356731 0.3005275687275735
38.478949882948044 -119.52311794279773 3.512385983842664 0.27731783165616863
38.47909549344679 -119.52123360537273 4.006077894191935 0.32074923860860716
38.477535876772485 -119.523633680789 4.7179608435012454 0.5696983260486144
38.478650885093316 -119.52175621860273 4.852650966751561 0.7455666728307886
38.47817749983348 -119.52214722609077 5.303762644285399 0.503507782926507
38.47900476357553 -119.52241583340579 6.244044483819637 0.509159703588583
38.47961853940319 -119.5225967691668 2.8728373368157696 0.20519056217396597
38.47993429124644 -119.52345285357039 3.6717822787301087 0.212118325665466
38.47935067293146 -119.52285714522228 3.8079732109645232 0.3617862113296531
38.479370616272085 -119.52345369987907 4.545857227217617 0.6753095756351059
38.4797181632272 -119.52138437754678 4.980217061475239 0.7783960790843887
38.481416614524214 -119.52249602886958 5.374138888447223 0.45959244562984575
38.48090094961517 -119.5223039105954 6.247744559033248 0.49384369804772144
38.48199782754488 -119.52168357156312 4.0107233823177415 0.43874116587754824
38.483758186403534 -119.52166269083438 4.543102247634246 0.8042297931207246
38.48255321390263 -119.52281375144365 4.990219585836068 0.8275403097784364
38.48373485771363 -119.52376067295856 5.473476895635274 0.5006347257529281
38.48273075541225 -119.52294714428707 6.233192438060955 0.5196560319477459
38.48433764922969 -119.52113432459225 3.369363848480038 0.21409327709866927
38.48518632421541 -119.523099397086 4.1248354286833075 0.5400793488835512
38.48597237092024 -119.52194836679952 4.321496994497776 0.9223736161320509
38.48475745056828 -119.52345950577926 4.993525517931805 0.8778052167335973
38.48477320656772 -119.52132183196586 5.521012867932859 0.6028552093901405
38.48508072482213 -119.52295363884775 6.212699834781309 0.5777184022569829
38.484646403653116 -119.522256235292 6.672949514789549 0.5228392382496825
38.48781978230351 -119.52339840822202 3.471017555756898 0.27041578925985693
38.486245947660485 -119.52305215875157 3.9577194226100607 0.6382461323906479
38.48743962797867 -119.523406696133 4.2515240611016285 1.0165928726686728
38.48617918589448 -119.52341763585395 4.756691179277809 0.9478927338492502
38.486680997553655 -119.52375612819603 5.609950537975253 0.7267622310700307
38.486682559076286 -119.52110801202552 6.208966837065872 0.6453587908722659
38.48627056126817 -119.52305048929422 6.517238294132402 0.5583607609447965
38.49059953793182 -119.52387610441666 3.5132081381789084 0.32756079581409164
38.49020903974994 -119.52272522450616 3.8969007279636325 0.7159380859586836
38.4905036897589 -119.52196408276964 4.546946148386412 1.0891892620862225
38.48875873309595 -119.52136698334168 5.198896235993766 1.0364715852768753
38.4889255031544 -119.52184279384801 5.484406855279387 0.8348360053964433
38.48948617404178 -119.5229111608041 5.920533295832142 0.7046437199972726
38.48891907078221 -119.52174116339555 6.324534334740197 0.5911821802659636
38.49271638534418 -119.52356922480686 3.7315533200815447 0.36052837801990784
38.491388450826044 -119.52394708130227 4.010134285059495 0.7415947084107386
38.492681023690515 -119.52141158554721 4.619373344680733 1.1209828474138683
38.49258602546251 -119.52312046734205 4.959284366286051 1.0998572834136757
38.49145863170667 -119.52206590693197 5.623354713324935 0.9025303510022771
38.49161953902763 -119.52339836104453 6.005263755618691 0.7487919766568345
38.4915223112304 -119.52362067586856 6.701668126252807 0.6188866612640946
38.494702541721296 -119.52241677653286 3.426525294808647 0.3626340384871291
38.49376196844525 -119.5217457288191 3.9002549645064097 0.6937833100596354
38.49331175304534 -119.52340044768047 4.661005936806046 1.1049158873931824
38.494311325610134 -119.52340202539455 5.036225070183292 1.1331766066811146
38.49426440485675 -119.521921705959 5.456440628454746 0.9486967213943291
38.494054556911266 -119.52116405777123 5.800295775832804 0.7751970375045482
38.49388718748537 -119.52349742628678 6.371753823221419 0.6355556305773472
38.494998625350675 -119.52247468349442 6.823979020281251 0.5333831437025329
38.49511838424823 -119.52182140715514 3.2548299294232654 0.3405263584413155
38.496503226033994 -119.52145052771078 4.2399357967935565 0.6037733682163954
38.49624012801501 -119.52160000625618 4.546705093349588 1.0474656415039016
38.496773541309686 -119.52143746112908 5.026107974326535 1.1567698005348162
38.496316955727295 -119.52345522743478 5.522792143183397 1.0014189149868653
38.49722589572645 -119.52340344468587 5.817572973819462 0.7897842354817588
38.49687510147638 -119.52358204407118 6.696916117287983 0.631632787571712
38.49657050327291 -119.52287137486422 7.230426672681654 0.563702724188824
38.499512744640896 -119.52121258869039 3.593090413486197 0.3110466146347667
38.49838442223745 -119.52261970483245 4.218956066301485 0.5138363549801955
38.49834441454822 -119.52226067494381 4.485539582048383 0.9614708688610161
38.498096674615525 -119.52110457099995 5.053040597675791 1.1679783029884516
38.49923412261972 -119.52266253290911 5.599239888741916 1.054870620191546
38.49841542392217 -119.52215379488536 6.217324636789107 0.8043096592298435
38.498284552877585 -119.52374925855476 6.5067077157906 0.5965868434430687
38.49764713482287 -119.52110317968318 6.961978531707835 0.5751465899269834
38.50105286738038 -119.52219577604323 3.3422214854172045 0.2883162154615593
38.50001126849709 -119.52303150922675 3.9994059592329467 0.4510397183479074
38.50043055961367 -119.52215068931847 4.525757401305139 0.8552717221096791
38.500319356455435 -119.52255694882375 4.936839082091592 1.1546082412345868
38.4997262347011 -119.52234903591143 5.73656645632256 1.0998174402033665
38.500213194556736 -119.5232309092946 5.952917522546798 0.8039358556982358
38.50121329880754 -119.52163847813853 6.408151425804606 0.5211297058437036
38.50056087181279 -119.52387558607106 7.151990952428503 0.5585278907168204
38.50385950733171 -119.52247105027143 3.579704946031499 0.27006767855724206
38.50370909100339 -119.52279186523789 3.937986555632752 0.42310397311721215
38.502885659078345 -119.52111185253769 4.342128373034466 0.7545270135047153
38.5019807873912 -119.5228458470171 5.214706794855672 1.1273805680352311
38.50211299305295 -119.52319086819608 5.395690822223329 1.1426799066199418
38.50324019930011 -119.52366403523622 6.208163547212698 0.7789173274103136
38.503065929170575 -119.52118822343353 6.533059954588312 0.4061884999069233
38.503966271819216 -119.5236407425503 7.085152234099723 0.504141639124368
38.504152833293816 -119.52376148786456 3.7357616423575895 0.24356305948374424
38.50631173238022 -119.52358151443241 4.08127831506121 0.42242106571971133
38.50512075785875 -119.52397378927067 4.66181176079849 0.7000641981480142
38.50598415653138 -119.52327966659098 5.225799103334491 1.0984700668124323
38.505752940246516 -119.52236407153039 5.59924184576348 1.1614221844326136
38.50500337012605 -119.52149014007155 6.046275011654673 0.7413790102880795
38.506051671026235 -119.52193420399738 6.2800223826880375 0.266108441496004
38.505432710898845 -119.52248834467238 7.120956117093005 0.40721281794272685
38.505353095515794 -119.52181237970971 7.578578086732002 0.6009164180642536
38.50659071294286 -119.52340424775281 4.231732796092763 0.4282746189054551
38.506879601140156 -119.52349767301773 4.598637068302253 0.6936641620593551
38.50735457937521 -119.52327361973353 4.96538305530956 1.0678832030280034
38.50723750526957 -119.52183526163724 5.4411725929814985 1.1484861446860717
38.508520130731874 -119.52209438079308 5.800714171132956 0.696084733288719
38.50812867237692 -119.5231143266015 7.035188609395964 0.2686123791756972
38.507041793814686 -119.52265627072714 7.250212654265988 0.5700083156469081
38.509499367775604 -119.5223282709799 3.924127030870842 0.4192347122956091
38.509461603391124 -119.52122997748226 4.485262686588968 0.7054038554708111
38.50868241580388 -119.52372897060877 5.0476205002092245 1.0384570385790828
38.51028656889039 -119.52364796778208 5.652299785304096 1.0976539104292546
38.51034910472087 -119.52211690487724 6.184321358045201 0.6456479571466851
38.50917424601306 -119.5228459256895 7.504750394792927 0.499828386092966
38.51087901439025 -119.52300110215772 3.952503533425293 0.38261155007929754
38.51090851955253 -119.522423453084 4.479367804644976 0.7052737969773308
38.51230855846787 -119.5238992482761 4.940716392780488 1.014854330560372
38.51244378643329 -119.52265768340317 5.400936751259855 1.045531736573362
38.51290061981393 -119.52302402187811 6.194505387010682 0.6065012825258502
38.511950888638744 -119.52294952378871 7.6223348530113295 0.3953526522155412
38.51347722652498 -119.52369378419728 3.896359252111157 0.32144028868401026
38.514166016780365 -119.52385902162013 4.670366087765026 0.6774045917438285
38.514202099522315 -119.52133774139658 4.9920199088378885 0.9717679796005833
38.51346452738134 -119.52315681439738 5.525464414183374 0.9985227741538178
38.514120892956285 -119.52132829495787 5.999621972941485 0.5920825920515481
38.51436898529414 -119.52259511492981 7.628984470466349 0.27372771919121225
38.517481205430016 -119.52260257337224 4.001255821662824 0.25173164742991594
38.51678871726105 -119.52321205706512 4.312569311188976 0.6275965819658044
38.51705597317306 -119.52297577728326 5.055345642605795 0.915514505606163
38.51760561571234 -119.52166040346272 5.6093072284789915 0.9612882817213563
38.517499927192446 -119.52320799880505 5.995566637526227 0.6085395928449489
38.51934872634798 -119.52159839235726 4.299849233068864 0.5711590829262851
38.519038460484225 -119.52130922218002 5.197603561058244 0.8709889001543909
38.51933510903905 -119.5217151682975 5.435652989122222 0.9199511126388826
38.51763313462448 -119.52147167803946 5.7710978858406525 0.6480646742100492
38.52122724338987 -119.52182884610097 4.408017524090101 0.5226129121329667
38.5198879447023 -119.52238537513524 5.019894735196004 0.8365938302091436
38.521892808144464 -119.52128159279553 5.501409910297713 0.8867267333041483
38.52141145053437 -119.5238609164837 6.249795032839985 0.68138273920722
38.52408137926468 -119.5218199568795 4.513678017705601 0.4884068076444606
38.524239979711304 -119.52394107300388 5.166109874442679 0.793175889267499
38.52403815077826 -119.52143408288501 5.746184738383373 0.856316296678374
38.5237908900215 -119.52248817762239 6.135316188091441 0.6883983389761289
38.52459526265518 -119.52336986986745 4.695467194686854 0.46313246692258087
38.52659354824356 -119.52202202653402 5.17114936078145 0.7450019048242006
38.52473860089804 -119.52156971522221 5.313094666173875 0.8228629348946194
38.52597137825534 -119.52316276648197 5.786670843364938 0.6712428956275384
38.52670922211017 -119.52217962187747 4.595054916116963 0.4402900621665027
38.528142816767144 -119.52204281761703 4.932364555266973 0.705261617956671
38.528171514714685 -119.5234138744374 5.323572039891302 0.7862502823831425
38.527144095206445 -119.52392479487456 6.154661547736546 0.6492157469392265
38.52673441010143 -119.52181916896805 6.41633496641478 0.22705405357073546
38.52979403713198 -119.52247043033339 4.610930761327032 0.41639914997579636
38.5311380625213 -119.52178254489777 5.1996452651799885 0.6781710557466629
38.529253967670115 -119.52237493539202 5.266557098884034 0.7498452521097866
38.52991450375222 -119.5214830561641 5.7866102435703946 0.6449734791953371
38.53067803583182 -119.52242226364895 6.598415552235798 0.2795585820601367
38.532427540254574 -119.52314046646086 4.34945000177875 0.3863165888360372
38.53260662534788 -119.52325294352464 4.77119176829495 0.6516684211620021
38.53279220311992 -119.52142396506552 5.746261487086049 0.7135058541500628
38.53312031078945 -119.52174419043689 6.121016716096562 0.6675355772495215
38.5321277829224 -119.52156225038176 6.599152794229706 0.36022120142943986
38.53418746924802 -119.5212883718708 4.469251226756984 0.3479309290476981
38.53462972795649 -119.52357434602187 4.778611104378853 0.6170100948213874
38.53512965444973 -119.52215559138888 5.250013614668322 0.6853921410858569
38.534197159146814 -119.52377539141 5.7720868692691525 0.7021818928607224
38.53523311168045 -119.52359820421403 6.550206827808173 0.4623821113281604
38.536513482699014 -119.5239421656051 4.410161211533508 0.30413422789659256
38.53586328401482 -119.52261061865303 4.933190338824994 0.579292153675697
38.536855503007025 -119.52220471465532 5.618176064495266 0.6601546367686624
38.53733733615559 -119.52191129081285 6.248891068386862 0.7241127032139933
38.537136457022356 -119.52357732355644 6.3152569013545286 0.5685432376438252
38.539771699925076 -119.52297720927793 4.666685171355445 0.25259999424800716
38.53834916710666 -119.52344769591217 4.978519768330262 0.5409012953910394
38.53891255360721 -119.52379633471179 5.613666381924366 0.605103224746348
38.539174297412586 -119.52378175246787 6.05425286394133 0.7299754194847529
38.539945358356015 -119.5226995647419 6.736417640179911 0.6579598233924305
38.53929805740371 -119.52206697046576 6.959604729559669 0.2532970795232372
38.540914931152656 -119.52348969708736 5.242639303271424 0.4925021728959894
38.54226613008246 -119.52113698626293 5.568380941572534 0.5613055442129457
38.54124840778213 -119.52229920185964 5.975071288031358 0.734599838702052
38.540968172233505 -119.52122357224545 6.48851329809103 0.7208970429368275
38.54197217346418 -119.5232398964296 7.173760843160186 0.3852023637297049
38.54411091637113 -119.52304900607116 4.801662415187489 0.4489948584884527
38.54247766941176 -119.52146517460133 5.695405170222865 0.5433835218948233
38.54266884171312 -119.52244855559505 6.197032892536135 0.7224164496433725
38.54446020675307 -119.52208861235862 6.693277245809027 0.756538135840838
38.542930033281046 -119.52252656085673 7.208890037477876 0.4972088649825304
38.54491134336324 -119.5224312234022 5.447297299540842 0.5323218634439937
38.546235314529255 -119.5238669914235 5.959541186446259 0.6953156861199137
38.54586783878348 -119.52260113168465 6.672206603304638 0.765219198455083
38.5454878834612 -119.52118421169847 6.80157577985625 0.5608776957405316
38.458004525262844 -119.52064195513435 4.660669847908781 0.6491085555608854
38.46088733194864 -119.52062942914452 3.847279169228906 0.5753700955609166
38.4600545047015 -119.51901436432252 4.589555099134626 0.6490098834760412
38.460135867339325 -119.51978557247979 4.780753966240419 0.7239465521772661
38.4623146183825 -119.52050667240799 4.107931393036592 0.5632813493508055
38.4624966272802 -119.52102229930378 4.373347856483151 0.6449769414038211
38.46155404499126 -119.51863646618091 4.800239168446441 0.745798637648021
38.46195772249154 -119.52094537750402 5.487612858358056 0.7392196195325037
38.46484652628849 -119.52107400880458 3.9090905332498673 0.5400203992739627
38.46459787169277 -119.5186911416569 4.349756298057688 0.6289202821631157
38.46389451623383 -119.51954126528979 5.010359514686016 0.7637913363918309
38.46411969505736 -119.52072930334852 5.650122282895978 0.772632292245659
38.46606575042488 -119.51999357544851 3.543435920426446 0.5633338981948558
38.467318179057 -119.5185238406695 4.099803721098108 0.4917914546755691
38.46590292618874 -119.51838608131271 4.665988649016903 0.5909328272259469
38.46614199913956 -119.51887822119066 4.785880525761297 0.7744936434471524
38.46732789290352 -119.52001639926111 5.300532873659054 0.801667639766141
38.469002516441215 -119.52054151789275 3.5392825855781247 0.5053571069453988
38.47004473885278 -119.5200837636419 3.886822467094075 0.414559420832859
38.47033067548446 -119.51841560998939 4.494739056022992 0.5267815054306844
38.4688138554677 -119.52039620871673 5.227245554876815 0.7740957734718616
38.46879723951219 -119.51971584219059 5.428970693677969 0.8174936561780017
38.469254761522144 -119.5206325491649 5.947821359466918 0.6909169893534494
38.470675666017385 -119.51955725198808 3.749326936650347 0.42963509772082387
38.471732866743096 -119.51832011754831 4.202752791028689 0.31942982616715987
38.47090436739053 -119.5187455996375 4.339356189645683 0.4459501644225283
38.47190365540405 -119.52094583888022 4.845533121578969 0.7618290137175083
38.4703804388653 -119.51933851365638 5.598279092437681 0.8161463771350382
38.47235020126852 -119.51957072030082 6.123749596117614 0.6946001839648082
38.47421773685675 -119.51909164625206 3.3767879478345284 0.3425400630816406
38.473264398526865 -119.51832385092132 3.9565971625693512 0.2291276054422147
38.473689006652855 -119.51911051304839 4.731764421823945 0.37527548823558604
38.47361874507923 -119.51957026092312 4.95017819312944 0.7414681787124509
38.47373208754028 -119.51907118524962 5.468535218460872 0.7775417654191742
38.47320209983698 -119.52104619451914 5.809401037382243 0.682945997256842
38.47655228391691 -119.51834005480154 2.983623107426006 0.3339130559402732
38.47606201673693 -119.5207013645746 3.3783072261900675 0.2518222452137909
38.47592533476833 -119.5202276379355 4.669772888449293 0.354159111054063
38.476007116500874 -119.51951527741345 4.93933983077703 0.7168666902885095
38.47499749042606 -119.51912257165968 5.732214463069617 0.7091756626493724
38.47527254902561 -119.51935255590779 5.99059905802495 0.6571562324801508
38.47732020590351 -119.51841848513926 2.9244018863446564 0.23409597720303166
38.478377574894864 -119.51880450449256 4.543807931363567 0.39887669899614997
38.47790132276175 -119.51927411724685 5.247030472122804 0.7173965348845766
38.477578030144954 -119.52042359362974 5.726228827196751 0.6395413824854774
38.47846835500384 -119.52038984008371 5.825044360430272 0.6319922578071339
38.4791598731719 -119.51855749704467 6.336164044422233 0.5143780712977976
38.48045738479512 -119.52093234573698 4.512028741406645 0.506307193203158
38.48055149654388 -119.51823134231816 5.133772317762284 0.7681082447053207
38.48133614403365 -119.52080972041415 5.549273282804551 0.5952444943332973
38.47989244065981 -119.51926189399697 6.011491453664415 0.6311404225757414
38.479661909909616 -119.52103711735603 6.6732045186121685 0.5684403107688445
38.48286937980887 -119.51901571297839 4.133469597852167 0.24018847590684483
38.48266051138089 -119.5197002238458 4.6574856851253665 0.6395643985533442
38.48190021873503 -119.52003923711142 4.996552725504379 0.8343378808924974
38.48160793975568 -119.52083705811728 5.325422280310841 0.6030056642241469
38.482286212313696 -119.51887750905424 6.008259526457773 0.6696947301503233
38.48357781079085 -119.52055254567844 6.26610462644195 0.6329165705066809
38.48546824710411 -119.52028720169217 3.812550109788406 0.3401423180525057
38.48440971925942 -119.52069663829306 4.672632606011724 0.765667799331278
38.48497472618349 -119.5206047383478 4.878411504654055 0.8991574664720694
38.484965587783286 -119.51829251428362 5.460430644881413 0.6840999068106219
38.48558049442992 -119.51977740976712 5.806717345294076 0.7391340869881569
38.485287840623904 -119.51857475755888 6.472845865654737 0.6981217978358591
38.48810841204443 -119.52073143211837 3.7887615387708764 0.43989730899331153
38.48731538896063 -119.51867185315109 4.298550068121773 0.8727224252885741
38.48758421215468 -119.5184659430395 5.024656555879492 0.9753224635112093
38.48743524755334 -119.51832584994591 5.474375215637529 0.810047788886382
38.48675470718358 -119.5185355241647 6.015585882243598 0.8187988928464016
38.48699826176925 -119.51981367054131 6.4584445924534 0.7558492317860368
38.486735954515254 -119.51957127018238 7.149762180629305 0.5262074331372804
38.48849642685675 -119.51908907984946 3.578852305015953 0.20531385972106875
38.48882142396729 -119.5207292997262 4.1485958036932695 0.5176525272306669
38.488420672637005 -119.51989038659856 4.33999872312218 0.9558208130688994
38.489537769135445 -119.52065542397779 4.950947365602996 1.0638770866344887
38.49035246864483 -119.51980275165937 5.5228652760549855 0.9403324018862355
38.48875089866895 -119.51935363274951 5.949399423769142 0.8978978045298762
38.489324538563196 -119.51924640009294 6.3198931691008875 0.806119357241023
38.489921270323904 -119.52100065068738 6.851551434086421 0.6004954619913926
38.49171964374928 -119.52056170659206 3.4525391486013293 0.24619407602928942
38.49094598455324 -119.52082406623093 4.0163999112957915 0.5526249803986432
38.49186842809531 -119.51940179175368 4.524192955983921 0.9962180691308783
38.49075205474056 -119.51852481633648 5.12608989405844 1.117435125298785
38.49249956953805 -119.51936367499367 5.4381288399453656 1.044028317160332
38.49068355545306 -119.52107716078245 5.778879398228754 0.9752427385953997
38.49184621221874 -119.52072265956954 6.734805690223926 0.8536628605886899
38.49114172388769 -119.51957386089556 7.115333101074938 0.6677478394468069
38.493836061637374 -119.5183081953819 3.284686860877986 0.2599320338341964
38.49348586784942 -119.51978127103322 3.849756522500138 0.5393886249289972
38.49459911131642 -119.52038018155719 4.447090246238076 0.9837279638232254
38.49289318674365 -119.52056521698847 4.807653087489061 1.1426960999121412
38.49467051517106 -119.519425220056 5.299312403413443 1.1280960930582975
38.49311414886167 -119.51927905062414 6.019424467612203 1.0453480125443115
38.49299773254987 -119.51897207531638 6.315345916036176 0.8979667949176497
38.493990768113036 -119.51917172615161 7.056733907288138 0.7283610237141633
38.496329452406 -119.52103176813394 3.511162781224576 0.249578367366547
38.49651586320724 -119.52009220767526 4.073575791509652 0.48968185970284134
38.4958844895261 -119.51834213926809 4.571962343705497 0.9275852692656376
38.49544707154472 -119.5201475000833 5.2211838507489725 1.1555558120331986
38.49566422649727 -119.51933332760383 5.374924452998103 1.1934868603889852
38.49700219668005 -119.5204701719966 6.182816116469818 1.1015443695937928
38.496728869293136 -119.5200622565328 6.337006148319335 0.9307173559637157
38.49714617447475 -119.51925713393679 6.795809710991507 0.7817673848211514
38.49941601328592 -119.51859214692571 3.688526575116905 0.22901402084558314
38.49831476896423 -119.51970460933485 3.801426792475946 0.4224878012488117
38.49802012364892 -119.52097587255633 4.464534728604875 0.8452016220649007
38.49918144592196 -119.52023473060194 4.84272329021833 1.139195352567411
38.4991552285628 -119.5191325490528 5.343641606089606 1.2364169235567506
38.4974183961386 -119.52006535649755 6.010361084549814 1.1421678196813025
38.49780349645047 -119.52089574111342 6.598533538385633 0.9403450986985058
38.49800837632804 -119.51976979519692 6.913258942377238 0.8253844051751772
38.497520936725 -119.51886326985925 7.381567586586275 0.6472263317849227
38.50036136064622 -119.51932443703689 3.3854741542857036 0.2125120149620747
38.50057070718892 -119.51998886877553 3.8042856667478007 0.3655718929855862
38.501478306838266 -119.5190785521441 4.350132281770612 0.7518000592103811
38.50020646661358 -119.51982697787706 4.829646067853745 1.0909855847903553
38.50093508479427 -119.51836128937002 5.542659856972275 1.258288002385249
38.50017919709328 -119.52092477136395 6.072253754370147 1.1605594439659046
38.49968470459938 -119.51857879358161 6.351550529941704 0.9165618722237895
38.50067435373656 -119.52078307995902 6.9129002762857406 0.8528885162320681
38.50154417863294 -119.52072813039568 7.5337781457912 0.7124940388902071
38.503463957158175 -119.51967391874312 3.5184938177952954 0.20248210680042997
38.50228594720099 -119.51972298046542 3.897889225358761 0.3377577544555034
38.50295147650231 -119.51918126275723 4.468989184514568 0.6620653080119889
38.503778176742074 -119.52002265045698 5.156541919868147 1.0435051035475167
38.50287493736969 -119.52090956047978 5.250445439473354 1.2749092276439629
38.50195506915768 -119.52082094451026 5.951190515581081 1.152873112286739
38.50330122965293 -119.52050658915645 6.71984089318612 0.8660648153906569
38.502204021190195 -119.5185510124079 6.874760031457027 0.853931644144274
38.503811191803806 -119.52003765929408 7.6508485051297805 0.7700105838716348
38.505035559453475 -119.51850784495211 3.7708595971110777 0.33698407440900435
38.50560231783256 -119.51921674033748 4.559898649000567 0.5985909494889187
38.50633759457278 -119.52023760393749 4.756032060408185 0.9934968301915218
38.504128659475874 -119.5210337705018 5.285726847424263 1.2637811361246296
38.504757480821496 -119.52054221160608 6.149839344331809 1.1327431370648744
38.5054918832344 -119.52093065343485 6.435159508347886 0.793327759578939
38.505255956130654 -119.52025270788896 6.7669913636711305 0.8205989102542612
38.505830016915645 -119.52089515621945 7.540520350021308 0.8129754939802032
38.5084567872124 -119.52067137388373 3.9970750945790408 0.34974358928486876
38.50841479400217 -119.51907305021209 4.668195909584505 0.5780713239851555
38.5082745773087 -119.52001133751037 4.81530772514022 0.9232280049153015
38.50757745360175 -119.52000922630687 5.385123803477723 1.2160347653494197
38.507166182827724 -119.5202254505921 5.858544317634703 1.1072558465500708
38.50668672286631 -119.5204853528432 6.689728996715194 0.6851876600366709
38.507495048196084 -119.51897719979841 6.798161566764759 0.7461175057009611
38.50837044559786 -119.51934530432861 7.551199507446726 0.8308885766167677
38.509253018212426 -119.51897543790561 4.133885365263063 0.3602860012870029
38.50926221677911 -119.5189423505231 4.430984057543185 0.5921868096733349
38.50949723197227 -119.52016609403809 4.926908708114107 0.8557624259732792
38.510067200920425 -119.5183334707132 5.552013600338473 1.1290543274584586
38.510661133785504 -119.52028179585454 6.142142879765761 1.06961539577326
38.510508529901955 -119.5205655799928 6.652275863743344 0.5568463882578353
38.51086889966452 -119.51926879729628 6.915455279054661 0.6205974938740545
38.51010453415568 -119.51938979806594 7.454846372214079 0.812457825703143
38.51257819813657 -119.5198268027307 3.763777266742874 0.3547045825743876
38.51284835410521 -119.51946834424965 4.466326778252583 0.6182685093788768
38.5111632023712 -119.51938896743978 4.806839268687031 0.8071682232510475
38.51252432503279 -119.51877207231165 5.352643196201413 1.0360090185912776
38.51256496755553 -119.51913745354048 6.0090776337025815 1.0213159802077818
38.511023813383375 -119.52001145715758 6.37295331559916 0.44621719402023347
38.51195869641951 -119.52062544606564 6.959219740522681 0.4524163371551474
38.51261860969249 -119.52053207500784 7.473230338410119 0.7508819356487764
38.51377252888293 -119.5206761836406 3.88813922113705 0.32694065406339484
38.51377943612724 -119.5207008655782 4.481273011365485 0.636282593996916
38.5137204371556 -119.51920293863961 4.773661746349578 0.7847249051072047
38.51515767754241 -119.51910817237018 5.420717688511676 0.9559021697738681
38.51475963513935 -119.52044249739497 6.035685398230793 0.9792772041089883
38.5139686400768 -119.51973940108763 6.435322712801835 0.3801633171505137
38.513522551457214 -119.5190860560251 6.8008188087540455 0.2793408043611857
38.514701113644364 -119.5196185061768 7.363250198061742 0.6516666824592385
38.516883986729404 -119.51916355849507 4.225063446543872 0.28057238136440077
38.516745312286304 -119.52109389667568 4.512439349297078 0.6342059925564154
38.51607460055306 -119.5190519728219 4.882056978386551 0.7918703485218858
38.517177295363105 -119.5184705339457 5.27824968846563 0.9069796115654905
38.516331982835126 -119.51936595750827 6.120457521912274 0.9618766906117167
38.517177164589945 -119.51983341911533 6.365647702147819 0.38264499569699595
38.51605335995941 -119.5193080461032 7.527643799346617 0.5357636147828606
38.51897138895685 -119.51833634458994 4.182456868139468 0.22194810891447356
38.51773641376491 -119.51876907741044 4.732393167306306 0.6091088120864109
38.51931739269198 -119.52102177051252 5.17289403554358 0.8094446776502142
38.51852593065851 -119.51846894077899 5.618627139008755 0.8891127419319633
38.51881418218194 -119.5198779490808 6.031716308522799 0.9617657000539405
38.51772098256915 -119.52004581095612 6.300271829781414 0.43707625225860974
38.51801672832386 -119.51909628695957 7.509006125352909 0.4304144885161332
38.521512959946136 -119.52088304598863 4.542146157969842 0.566162674192518
38.52212196524733 -119.51966907410848 5.217408365460951 0.8095588694189072
38.52135882438791 -119.5191123321966 5.683367374806184 0.8917203551144757
38.52090782973191 -119.52031086951826 6.000759952256848 0.9525938376164997
38.520581455747305 -119.51990063930344 6.56400392207172 0.49535014454588155
38.5205122909795 -119.52078032337153 7.387473924626201 0.352373079635532
38.52298830700123 -119.51900787575208 4.675357180248974 0.5134968070215162
38.523695507963936 -119.5192144766046 4.909071091521809 0.7789177636101159
38.52321361189191 -119.5205077469751 5.319355738650559 0.8889164589130341
38.52372219489915 -119.51973068567253 6.1901127173678745 0.9207622704755789
38.52311144053048 -119.51892258697961 6.729981594843597 0.5251462605861413
38.523975573320214 -119.51931421087839 7.342539302870408 0.29904902795071137
38.526278433921135 -119.51921958860339 4.443061794228779 0.4555881714124819
38.52610807132229 -119.51898545857597 4.849498813859759 0.722639959340683
38.52589847228036 -119.51954678914527 5.326868124260089 0.8621395496108772
38.5246321729104 -119.520042692075 6.196969875810849 0.8697644188529783
38.526002911667945 -119.5209990004215 6.49167727084001 0.5248204329042047
38.524565418287054 -119.5203785673954 7.641634809911946 0.2575215787416276
38.52691708205658 -119.5186474173774 4.515305696519057 0.39484055437126897
38.52880904432874 -119.51974484753326 5.147113909388036 0.6630911083589376
38.52806474679282 -119.52090640664161 5.609927597055013 0.8102602889308972
38.527711805873146 -119.52003405252896 5.948055765089338 0.8138181102012323
38.528743273132925 -119.51960496008856 6.623005626243086 0.5152032335988302
38.52702556364854 -119.51839764850457 7.701504153036749 0.22535680094575858
38.530295528651685 -119.51971492955919 4.282655621522376 0.34013122105874377
38.53070490949817 -119.52073021453856 4.961834891727495 0.6127462392488155
38.53050787521744 -119.52052115578967 5.289653927781997 0.7462801563132613
38.52916224615059 -119.52019123184623 5.927982483471749 0.7672960774424685
38.53094408368277 -119.51944778549844 6.658731056014007 0.5233149477513692
38.53014086674915 -119.51825781744036 7.740755019206692 0.21455786637783392
38.532830245157655 -119.5184049036364 4.524389267618838 0.29559533519443465
38.53151447899797 -119.52000337378585 5.067369016282204 0.5628697154531177
38.53233453627004 -119.51841613081633 5.302670670423385 0.6761798224062572
38.53245456752633 -119.51901712125927 6.24741987446026 0.7333735802844812
38.53305745063504 -119.52022167947786 6.536441025587445 0.5615749986290647
38.532391025159264 -119.518579076807 7.570026180894274 0.2430512677589003
38.53497704668791 -119.51934698944305 4.554696197695341 0.25682990717580545
38.534748822022145 -119.51974957478208 5.03465111698917 0.5045015484327704
38.53446336460429 -119.51944120105715 5.524999472258971 0.6111146805887024
38.53461156668185 -119.52095858967685 5.989366088666994 0.7034491509300683
38.5339436438499 -119.51825264493421 6.683488032331945 0.626659564545541
38.53459143310285 -119.51869324877607 6.87961146707798 0.3081239704571649
38.5365167225498 -119.51954336970961 4.417709992863584 0.21842363404524764
38.53645298339308 -119.51975260610061 5.021867435522897 0.46388318753384183
38.53762933406843 -119.51871749327906 5.483337931140747 0.5413779796401637
38.535838188431725 -119.52103868505586 5.96131685861763 0.670526549676422
38.53574000427952 -119.51991019731015 6.50624495100773 0.7049862159010067
38.53674777297135 -119.51970236429739 6.9179269989600956 0.454407336623559
38.540127936040854 -119.52066836361169 5.103296817238849 0.43483462587150085
38.538903735672115 -119.51997376263887 5.331503014607367 0.4612577327115286
38.540054475900966 -119.51831577544009 6.245988334473708 0.6287133525372087
38.53899780517123 -119.52050401329944 6.720834312913164 0.7832042644662034
38.53981910535932 -119.51845539602732 7.018674023328337 0.5847291202513115
38.540497393922415 -119.51910718497676 4.913755177355202 0.4067170092915815
38.540572216099704 -119.52084644088534 5.505804355711346 0.4068317663222265
38.54223705004719 -119.52020044477099 6.117643843315139 0.6016630892688579
38.5408194831288 -119.51873030480355 6.354650191462783 0.8452396514197277
38.54077598506235 -119.52043947095251 6.9245140716712665 0.692152912014454
38.54272423441194 -119.5194560107422 5.083601758515917 0.38744577356899335
38.542750421107726 -119.52024355347294 5.2807362892822605 0.3979925135862274
38.542629986434456 -119.51870467722473 6.06528859160432 0.5965027425002775
38.54280973519886 -119.52045431886877 6.458880552713716 0.871529026635293
38.54437245432016 -119.51976286743026 7.18979580718684 0.7727401206660923
38.54499036225024 -119.52021877940095 5.1850670733645225 0.3832984862857407
38.545976677660185 -119.52024246926185 5.559269250493998 0.4142446786929518
38.54495925417194 -119.51912642771009 5.919429170567558 0.596789775939758
38.54689761302039 -119.52090538781695 6.323776536368576 0.860954570299913
38.54689732936386 -119.51828398776254 6.965225101742034 0.8029476699409855
38.54769072952841 -119.51887845394293 5.94928620345762 0.5895045883676128
38.54703036205259 -119.52023090720311 6.704667738458719 0.8254364274235338
38.548082006653324 -119.52054567507409 6.817798519906007 0.8195188015570811
38.45648150310659 -119.51672384018991 4.5398266397770035 0.6289994713444004
38.45853551752438 -119.51752127696803 4.467325207590073 0.6207005748496218
38.457247244493274 -119.51604836084175 5.167686899455308 0.6865210312589377
38.45994026310004 -119.51545337255783 3.7549785529664343 0.5406755524197199
38.460792764305985 -119.51733418864967 4.525114082957921 0.6087758118560114
38.46061589968091 -119.51653864179451 5.1494321668979035 0.7001029464774688
38.45960372926538 -119.51595287415168 5.564087571771007 0.718833729138814
38.463205881605546 -119.51741021546663 3.870788668105106 0.512688889846986
38.46225504138841 -119.51809708500826 4.313857102480533 0.5904141192813765
38.46183700206993 -119.51757143075042 4.966305997034858 0.7110674860720395
38.46177109986961 -119.51535464510751 5.648231160628473 0.7476426406426878
38.46261943413796 -119.51723974627235 6.245529702064101 0.6842516839957592
38.46380214087972 -119.5156336814896 3.99248637028434 0.4723389671448199
38.46373217420595 -119.51683024123521 4.334450907599037 0.5591769595563624
38.46388389756891 -119.51552273136129 5.169366872850594 0.7178790251767074
38.465357870021634 -119.51756201349669 5.620070701831738 0.7780876860358987
38.46485058284465 -119.51535076270997 5.992968374283286 0.7048354112243336
38.46607780144494 -119.51608809870491 3.3169646918034577 0.4913671732230737
38.46753174870094 -119.5170785771647 4.0964240986403295 0.41110819627029316
38.466918867003784 -119.51818046583847 4.465561838424971 0.5077183161850105
38.46763154480263 -119.51743193399945 4.754836206261579 0.7184374176820961
38.46745776411412 -119.51594548953544 5.517754187900654 0.8077481697512497
38.46802926239911 -119.51664790104482 6.193295483409048 0.7251428004903209
38.46908562282792 -119.5155118799004 3.576653119325372 0.43275523133056804
38.470190045632954 -119.5178522731475 4.1974959269676395 0.32787507075278793
38.46916001316683 -119.51698061246721 4.515288827640024 0.4330754563582305
38.469588631427925 -119.51768246620077 4.905388719190256 0.7114996074414458
38.46872417512346 -119.51579718231882 5.734796648235353 0.8335363430846151
38.46808925610875 -119.51730811841766 6.088549111098094 0.7443490288178494
38.470964010640124 -119.51706221316212 3.6362638032879766 0.3641469559724039
38.47076351150389 -119.51632763361098 4.0905515909995085 0.23327783852773923
38.47202963964683 -119.5164711193397 4.477433098595942 0.3422592842911584
38.471853773924224 -119.51617880362824 5.100693446805764 0.7019241897759678
38.471534726861734 -119.5159540408755 5.421572631719898 0.8545120335959291
38.47167635627281 -119.5170462556153 6.099099028131342 0.7661624223050213
38.471576500643 -119.51628026630641 6.588208229840795 0.5030101395129057
38.4731601471488 -119.51776436411029 3.2052991823542967 0.40660528815585995
38.47361324065916 -119.51810663700869 3.278874743792673 0.2933850073795433
38.47409669808331 -119.51660540775448 4.256001394271017 0.2556925067493679
38.47404065819615 -119.51708259586681 4.751907562692787 0.6900027975863354
38.474115548360864 -119.5175638716775 5.669888617495824 0.8527531768041665
38.47404645591122 -119.51559881101275 5.926193649608036 0.7782917481469815
38.47344332438882 -119.51635612643521 6.503241829164962 0.5058991182221526
38.4770685053319 -119.51733963438276 3.036126875019943 0.32837246417058147
38.47546582908275 -119.51561595487469 3.296255082374131 0.2278402733229623
38.47559634182585 -119.51779064115978 4.6909936382586155 0.20875729740246252
38.47486518061033 -119.51789190808377 4.794953063205745 0.6668978006587973
38.47560446726323 -119.51758188968289 5.513967163223391 0.8393929890732381
38.4754021394244 -119.515430909951 5.75853355713046 0.7771729082475554
38.476595888489214 -119.51803518058692 6.615995054192425 0.5336178589815398
38.478588738114254 -119.51574930084836 3.018126710603765 0.24828185899113805
38.479123068093536 -119.51621659343719 4.716100550649428 0.22092510870656296
38.47925105771704 -119.51685535695204 4.985535164443382 0.6606927464289123
38.477422389175345 -119.51741706101716 5.348164464350196 0.8259322978047247
38.47736626537224 -119.51654286456522 5.850081007654316 0.781733497768465
38.47866595930021 -119.51650799573417 6.516051209035054 0.5912940049783524
