> GMT_LATLONDEPTH
> out/cube/20240710A_MSMS/PointSource/FF_4days
38.48830151469938 -119.49587872206169 7.562071746898599 1.5728992177465952
38.487920984024086 -119.49524540729006 8.086289233253142 1.11778471972632
38.48743194646122 -119.49660855594763 8.252428064106592 0.32545889128930555
38.488946511983116 -119.49649725507004 6.314597146530539 0.5461696127250307
38.48943503753244 -119.49605751648423 7.063655097504372 1.4758472400331741
38.49000321150357 -119.49659184945735 7.511643703115083 1.6242541468131677
38.488470659610776 -119.49610707324796 8.13378766087789 1.1831165673664998
38.48885952053788 -119.4972261758009 8.410682364476424 0.4472197252277222
38.49077673180026 -119.49741486740844 6.446887525381218 0.52030052059074
38.49125299655358 -119.4954690209604 6.846145688715502 1.4942952508972054
38.49081327279393 -119.49715231200297 7.602277992308997 1.674065667897416
38.4911252195014 -119.49715324639095 8.065374022362358 1.2407889400324434
38.49198131140816 -119.49543678514924 8.276852559607349 0.5310043721895721
38.49502473611679 -119.49791718937269 6.61983825104185 0.4666959842248746
38.49412746060605 -119.49724271229744 7.248839676055184 1.4898838370043166
38.49433030693224 -119.49772363267836 7.422661277677188 1.7184352580468314
38.493477981174195 -119.49787094322024 7.865463612620392 1.2911022413272957
38.49324356644561 -119.49592351134265 8.382363338302035 0.5814027867649046
38.49520606069025 -119.49527935575748 6.353181926433796 0.35991327026598163
38.49567607116644 -119.49546154328932 6.8347028747176095 1.4497195181183797
38.49682097619851 -119.49560163297454 7.731650759219996 1.7533260510964261
38.49678360740191 -119.49707006839965 8.0621931382622 1.335041256614938
38.496786998647366 -119.49632574255715 8.331589721894474 0.6068243898237449
38.49860732342331 -119.4961864390892 6.3230473594132395 0.1630288323064723
38.49935685048115 -119.4956463084803 7.023596207617996 1.3656548330275204
38.498937246967 -119.49745612043259 7.689440249650252 1.7782743430291175
38.49777621037222 -119.4956373173581 7.802005972731588 1.3780682276912313
38.49924254040041 -119.49705844144633 8.497052204740026 0.6181220513131511
38.49968464120813 -119.49610105030071 6.920685489971296 1.2392793216457854
38.501847692080894 -119.49691784342617 7.502058915902765 1.7965842542527828
38.50062335060288 -119.49776522304136 7.996872754146669 1.4299997482508706
38.50154035556936 -119.4959041749281 8.470275821883131 0.6311175011081966
38.50276875704692 -119.49521215610784 7.20536273341088 1.078506907094173
38.50306746427004 -119.49783519308195 7.506639870221256 1.8103225543126809
38.502616933229056 -119.4952888399313 8.079672839992524 1.4972256895788842
38.50199736045348 -119.49520754484992 8.32806405899295 0.6619499975156775
38.506346725208374 -119.49611952766529 6.966253510631901 0.8910391956614699
38.504887273833546 -119.49644514361044 7.522571969640597 1.8148960354434627
38.505397816683136 -119.49699655317981 7.978856638281903 1.5770229446129604
38.50635689633052 -119.49589855185364 8.255997272116383 0.7329681834170466
38.506712577001856 -119.49571583574274 7.150539336919158 0.6869811997775221
38.507717863965716 -119.49585086628748 7.666827493574198 1.802158573029198
38.5064030923281 -119.49800205401098 8.022152697871398 1.6598501109521007
38.50843741532147 -119.49534969202486 8.595444396411036 0.8170524296303919
38.5099167947703 -119.49659750706489 7.037186344016597 0.46437101891682464
38.50917287097838 -119.49522503689317 7.31455292434465 1.7662457917346284
38.508802357591485 -119.49797719528294 7.766671055929842 1.7240968613579843
38.50969704641763 -119.49750415136657 8.25231611868275 0.8874893815892555
38.51260666438869 -119.49523817508158 7.021380714842712 0.2384277998796759
38.511763826571915 -119.49526142439728 7.718213340146363 1.70386800637153
38.51140736311306 -119.49770090456711 8.05305752356257 1.75883075307614
38.51258473056523 -119.49669415428977 8.37972509440489 0.9298629489266493
38.51439117478116 -119.49796579988464 6.753540115248314 0.0503939146247129
38.514166160957316 -119.49801002437553 7.405331020810611 1.6134501444189586
38.51517338216354 -119.49524800197051 8.035570703199767 1.7564982988368119
38.51346220324781 -119.49582243468375 8.366136101003896 0.9535168439882205
38.517376094130086 -119.49686284872287 7.319514258083861 1.4974349695300107
38.51601545311885 -119.496636709489 7.757586470128526 1.7186586014829268
38.51692671106117 -119.49723541565093 8.693860766572376 0.949573864113638
38.51836854718998 -119.49528928307346 7.693711454942328 1.3688243444207844
38.51794415824953 -119.49579538002237 7.835642365765642 1.6636855782136313
38.51965156131469 -119.49793660246662 8.701072665244936 0.9392232715679519
38.520010045686554 -119.49702051062863 7.444679447396025 1.243205360420904
38.521883347675676 -119.49590344507287 7.961353286628729 1.6209732472943463
38.52173330929199 -119.49571689314139 8.277946823230474 0.9396733014698913
38.52108662157032 -119.4970071810235 8.984551866692158 0.0012567834840079913
38.523504021213625 -119.49610750848377 7.30294294069968 1.0932077040224624
38.523553171409915 -119.49523300768546 8.245777847115852 1.5831447861140735
38.524164642210536 -119.49632054034163 8.383065848947227 0.96395202359692
38.52342898524388 -119.49621834175537 8.923149976928398 0.08040026190939206
38.525812675265364 -119.49802979948335 7.554755568889587 0.9058575396811964
38.526619957370286 -119.49780144128763 7.976651130459058 1.5163970473514754
38.52588522831332 -119.49660690074253 8.49603711123989 1.017859869366016
38.52568495635291 -119.49796176052601 8.771682390314961 0.18225562210435076
38.52852258312951 -119.49606250233094 7.438761000253686 0.6846047684995155
38.52787640895254 -119.49798325760544 7.925919641078968 1.426006906252797
38.528457226098425 -119.4965912880797 8.395328971526 1.0876560693422936
38.52701354187164 -119.49622826428146 9.246028323667826 0.29679208264313783
38.530874798143905 -119.49613013083984 7.5955642851199725 0.4904433924332093
38.53012316593031 -119.49585150927138 7.798340810366825 1.3296319703994381
38.53094478654548 -119.49695882845111 8.678236580500336 1.1454713027040606
38.52889190113004 -119.4961455443795 8.751413459516261 0.40949434982629956
38.53175371678806 -119.49537072204147 7.41954263179126 0.3587579370550111
38.531521776347425 -119.49745901176534 8.234321104100408 1.2298356513526079
38.53179267142023 -119.4964005141972 8.422869925629069 1.166678285326894
38.532726471017995 -119.49763501068695 9.13740252102304 0.5022075142184167
38.53519759336218 -119.49659521195913 7.712483846213137 0.2981017112107462
38.535329188495375 -119.49692115066601 7.788910644636342 1.1177510058443612
38.53543926121011 -119.49601051014407 8.74634892710496 1.1399336838600131
38.534906162097414 -119.49799303834634 9.017127408609873 0.5609614106972193
38.536498843900766 -119.49691912245596 7.538262164834412 0.2679903645299974
38.53642961575772 -119.49742030120021 8.217175002032791 0.9912040401609499
38.5374973769122 -119.49778086451936 8.584542980958751 1.0643436146553191
38.53716085168946 -119.49699910222411 8.882546998533693 0.5802343814666336
38.539359534698825 -119.49571641803846 7.621986758900449 0.24335238651546756
38.53843754945595 -119.49717473549583 7.937373989309485 0.8494367512543044
38.540110469302824 -119.4955547151272 8.47207652893725 0.9469624270871992
38.539717092791925 -119.49649211298188 8.853658675661743 0.5641732744229202
38.54185441588595 -119.49710130186534 7.40286421119482 0.20849224804460315
38.54030096538671 -119.4953915232317 7.893251287966957 0.7348923126448285
38.540817162052434 -119.49525712196602 8.621201799520382 0.8118589927771744
38.542111368551815 -119.49776956182569 8.811312888521647 0.5262107386298972
38.542995665620275 -119.49786807405715 7.342755900151929 0.16290140180790574
38.54257573914794 -119.49598803262525 8.000086546418817 0.6404677147395397
38.542586892488124 -119.49728931693478 8.67054806473718 0.6919218287189749
38.54298557085831 -119.4963215659124 8.837553199054328 0.48197904256392443
38.54525191343791 -119.49573244459886 7.330340396981767 0.10845320506000478
38.54602452854952 -119.49563516148467 7.967738159097758 0.5355784815717595
38.546293303836734 -119.49638315043747 8.608961352888839 0.6026149789174439
38.545130972176686 -119.49736127769116 8.948399840839736 0.43605411903937613
38.547720975584326 -119.49702058665186 7.526292362418719 0.05434073100377767
38.54858807737806 -119.49721609151197 7.909486937342117 0.4358881247073283
38.54793703531029 -119.49645616336193 8.591993117506536 0.5349249898289515
38.54705148307463 -119.49687490180152 9.18006293540549 0.3813165925140895
38.551410230307816 -119.49676784989025 7.452846461641435 0.010022641516535879
38.54993708414916 -119.49737155345908 8.100415251791325 0.36896583873055505
38.54991432596463 -119.49698504783038 8.562464201603941 0.4591804120347051
38.55050248848601 -119.49628245703462 8.800013823433778 0.3127375206575823
38.553147137256275 -119.49710721983942 7.9733272849725 0.2964102662243663
38.5527487481389 -119.49603163915107 8.403439892713925 0.37080221315343986
38.55202228892262 -119.49777030702374 8.774343767355308 0.23461666652800328
38.5558981180984 -119.49566313619646 8.197464841000727 0.2277051098711783
38.55446296142964 -119.495607207859 8.741079215990114 0.2807643580916737
38.554987055504384 -119.49762981125005 9.246947670111112 0.15487777296259989
38.55774780217167 -119.49607315099446 7.711833356698015 0.009655069869983436
38.55682184597448 -119.49620219098705 8.013221535335894 0.17103659359728393
38.55656910064611 -119.49688830081762 8.403204127022136 0.19743694332514145
38.55808030208182 -119.49624302535551 9.237638532156755 0.07911495955836075
38.55872007375449 -119.49743873309018 7.250690803796633 0.025486508504173017
38.55906531010579 -119.49745513790101 8.12083312104266 0.12373992063413435
38.55846444892018 -119.49555540334052 8.62015141461072 0.12301303472939948
38.55858575806949 -119.4965589184527 9.16520142566604 0.009412842704203256
38.56164849440711 -119.49547288211991 7.732401602335356 0.022192255308889467
38.561809387257114 -119.49595641036588 7.917153385280614 0.07820142957632213
38.56111305155083 -119.49664806233669 8.515819954431976 0.055472361549146865
38.56420685432859 -119.49697257362696 7.836294053376543 0.027667392491183326
38.44979855409845 -119.49329483820709 6.841728428987334 0.024781077997006053
38.44812498837795 -119.49314247795807 7.684912863924799 0.10041939065770487
38.448359644090694 -119.49464582579537 8.220113925697097 0.015935269884628997
38.4503358709979 -119.49500689488778 6.9140095271485364 0.10661803760654132
38.45116817962055 -119.49259583782558 7.6884729310581665 0.21545455313687115
38.4501609945279 -119.49318868649804 8.011084208463721 0.12419100055978853
38.4541426694288 -119.49464918192362 7.2207181486656085 0.17293358067847284
38.45415876511393 -119.49247986644298 7.339286105581194 0.32849916893834485
38.4537292180528 -119.49479100273597 7.840846118415352 0.23426677096868656
38.45627810965785 -119.49451194457806 7.197320415205152 0.22070810238894925
38.4546020464222 -119.49284667977533 7.65833845620128 0.43499226453258405
38.45647506726061 -119.49422505249223 7.867312283082955 0.3426425848338349
38.45470085816571 -119.4927325891408 8.740541779507668 0.05689013818119686
38.45888819415776 -119.49434757702473 6.904603057223052 0.2522286871040749
38.4585839769761 -119.49353737928173 7.30192691558593 0.5312954935546867
38.458998415794255 -119.49295712591432 7.824862679106114 0.4444142291996865
38.457603369196256 -119.49440951560167 8.427528994783131 0.12383195553426002
38.459402775473144 -119.49275741837177 7.151363243927129 0.27748236909835083
38.4602122420646 -119.49363941001953 7.460637960402321 0.6177055279818255
38.460362334625216 -119.49307800901234 8.231258389414437 0.5363875444054932
38.46037192674719 -119.49485206451308 8.33890717635299 0.20133819390934346
38.46139625978271 -119.49376207583543 7.184165125544476 0.31311013182818237
38.46237921495124 -119.49255993148574 7.50463346059299 0.701400935097506
38.462236105787156 -119.49517810966924 7.821314877628744 0.6275868036893613
38.463178638637046 -119.49250448889559 8.59488328239925 0.27624076730245195
38.4654419059011 -119.49505873341757 7.116420514540715 0.37416010088134294
38.465007765377585 -119.49327051312342 7.4121669786339925 0.7925242147442179
38.46569354579216 -119.49282081395936 8.141092518354453 0.7207321447203445
38.46398154644319 -119.49285514596903 8.479825850567982 0.34520156649711353
38.466321108738356 -119.49409576310437 7.193317563265556 0.46354775952254246
38.46610774084454 -119.4950360911685 7.3193042110173385 0.8944848362460887
38.46638371981423 -119.49283858843486 8.000051631216751 0.8102965647978808
38.466189133315424 -119.49483203791371 8.500911012993692 0.407536299687737
38.468891028346235 -119.49517061343857 7.044307214710661 0.570089165959045
38.46864192435907 -119.49417102727894 7.683002005594219 1.0002336431584573
38.469840579338275 -119.49319724327444 7.845646567848389 0.8934334773519607
38.46947426347266 -119.49350261348938 8.389065824776793 0.4669872365665401
38.46905212425393 -119.494866344378 9.183847049017606 0.025456036008253136
38.4705975549152 -119.49474133702977 7.198601385683915 0.6770301874640124
38.47196069718994 -119.49270102594116 7.305004507278068 1.0988338651025025
38.47216355973393 -119.49385001544783 7.904689836828829 0.9669287359633769
38.47076941728541 -119.49302625595983 8.287165817125176 0.4961106914472454
38.47186433370533 -119.49411346700018 8.757955395392491 0.07512463344018223
38.47431611762555 -119.49468844949669 7.122989032007815 0.7719469949771087
38.473582947341825 -119.49242467037784 7.659691443486062 1.1831611791544019
38.473138752893 -119.49396239053192 8.003641285767785 1.028618561118625
38.47329477212925 -119.49255099283754 8.743235490668257 0.5096147285650806
38.47339936237802 -119.49243779473336 9.145770459118344 0.1123200722098809
38.47538604339982 -119.49404014030748 6.836416566073808 0.8510175823143407
38.4748594232568 -119.49361939387174 7.687404979659017 1.2530923353940195
38.475280859124986 -119.49461005376953 8.0734758539613 1.0822040296845252
38.475376503900456 -119.49489012336736 8.725065550384736 0.5252781139745903
38.47663308405871 -119.4948229510069 9.083783025158985 0.1357092455262526
38.47806214202654 -119.49404393572351 6.964980510433765 0.9175796638482631
38.47854457554505 -119.49299658845845 7.343726715102877 1.3145318963259893
38.47908930780865 -119.49488108049457 8.197285601346541 1.1372889846934762
38.47809568320704 -119.49512914534351 8.749632326877755 0.5388683393021076
38.47828180700599 -119.49296485180503 8.998042633575235 0.1515036623953211
38.481339796790394 -119.49490090578325 6.770469188860425 0.9772365335397918
38.48040548270986 -119.49391376979574 7.512027588090675 1.3750194239043885
38.480259565121635 -119.49378285482267 7.75749775845355 1.1988799581134655
38.47963285399479 -119.49259439633173 8.595090746232438 0.5682812845706168
38.48063198553073 -119.49409626798922 9.050956399603564 0.16568759279002226
38.482975510479946 -119.49267486015307 7.167812418862428 1.0324234198258926
38.482588772501586 -119.49343295177519 7.337814998496128 1.4387786676122964
38.48218234514401 -119.49443350597213 7.92903986148764 1.2653288940655563
38.4827186865587 -119.49393201002948 8.55878158747427 0.624555478994023
38.481718161322874 -119.49241156272403 8.862138978245905 0.1854470828899994
38.484986767456085 -119.49338666752541 6.821875109662027 1.0802857408798758
38.48388285023407 -119.49256592143736 7.35678659136225 1.504172899031041
38.48528457404537 -119.49486140505265 7.781652618690017 1.3306061938897693
38.48602580477712 -119.49466337771874 8.57864270573595 0.6889833653629224
38.485998858664594 -119.49436028392351 9.014937086397085 0.21272510000305797
38.48804735317038 -119.49254946408782 7.167523362084462 1.1164059637412238
38.48642811733898 -119.49257891217786 7.741975853442571 1.5648595386863575
38.48760887663893 -119.49280963966959 7.80977556057638 1.3854835551126838
38.48809801485826 -119.49251206900784 8.553002218406062 0.7653725702807483
38.487709350530956 -119.49329781733987 9.092784121526103 0.24104498579566122
38.48974602278627 -119.49408516646012 6.840911668809275 1.138911084699701
38.48965290627872 -119.49454143850319 7.74620292820877 1.6139352968170086
38.4903239896772 -119.49418955635413 8.146699858385505 1.4269334487791077
38.48994469483212 -119.49482530531122 8.7183443861575 0.8409962894510831
38.488937741173224 -119.49303904147155 8.994441216280329 0.2659549789431818
38.4915090218056 -119.49333021438053 7.248379996801182 1.143856734080667
38.49209991778103 -119.49364008754097 7.71678905980205 1.6472728689117133
38.49100865884812 -119.49301372724413 8.05155336017708 1.4582991835255474
38.4927719909651 -119.49407258005114 8.58985712306708 0.8909329536418049
38.49283148615934 -119.49244624526784 8.869714568231542 0.28510190892490567
38.494757883906104 -119.49329368953353 7.078334732750324 1.1199398770115272
38.494246196081036 -119.49494033929862 7.649952800988757 1.6636261684866915
38.49495328889129 -119.49311373889923 7.960571157018386 1.4823686776755922
38.49325717806558 -119.4944798619591 8.70391941489906 0.9191765038480956
38.49384498545735 -119.49378221909534 9.075632271578803 0.29676270758652123
38.49674256983891 -119.49348440392872 6.923737630449724 1.052462277590774
38.495520779079094 -119.49405687369655 7.594584465255807 1.6631478662403416
38.49589324736375 -119.4950929354957 8.065594535467328 1.501472062730537
38.49580639844618 -119.49339811036526 8.372648561588672 0.9334301925448206
38.49552668509427 -119.4943674700027 8.849939564771619 0.3003536818292148
38.49961122167627 -119.49452001214422 7.051635469731358 0.9303196735449912
38.49756107206488 -119.49463992342692 7.683582545141868 1.646163851666402
38.49754690127266 -119.49324058584824 7.9556453589870575 1.5200348055803918
38.49783203783608 -119.49238065758598 8.61829975965112 0.9419569365495625
38.49839232045453 -119.493089909076 9.118123769460597 0.2973224164094023
38.50159723218606 -119.49505390358563 7.108092551641169 0.7512575541433333
38.50037868088247 -119.49351759842426 7.251730110543298 1.6122969238745393
38.501339522501 -119.49370335503158 8.171152245059249 1.5435903197518834
38.500944289991665 -119.49391186675025 8.392919127529357 0.9543651113760869
38.50172401200377 -119.49349208639845 9.21858324035853 0.291793292468706
38.50233797147409 -119.49360291177831 6.952694093636062 0.5277741009691393
38.50229794254858 -119.4947187773122 7.703679866778596 1.5596185134649503
38.502290971050584 -119.4929591859363 7.854160275360849 1.5746189027496231
38.503463957220944 -119.49260201300052 8.389838135923787 0.9822259126881825
38.50252817591352 -119.49297089156255 9.212783235223496 0.2931949299417859
38.504596634588516 -119.49304801393191 7.0601547690756385 0.27747548495911417
38.50516933653393 -119.49486226074318 7.456805910932828 1.4861673686369108
38.50602042638249 -119.49404926618374 8.234118616461851 1.6173401093583264
38.5053644548579 -119.4926371939564 8.326386434409297 1.0403932769550028
38.506260400494 -119.49376777099637 8.835661831212665 0.31815109511035733
38.50688811706222 -119.49272685789153 7.173178660465886 0.010299843861647838
38.50779413834902 -119.4941745634172 7.682084498222571 1.394417438453247
38.507849012081365 -119.49367490757898 8.049364313862021 1.6628348753216116
38.50750687529199 -119.49291315868851 8.66890047585929 1.10394006929327
38.507976136838565 -119.49412518565109 8.981309027212358 0.34399734568006424
38.509593781673736 -119.49236917378504 7.271385138480137 1.2907320615766804
38.5104129636908 -119.49354509981693 8.228313354339141 1.6817269116783873
38.50950651492762 -119.49364219806803 8.586646616287641 1.1549947326882726
38.510389330992375 -119.49329756517263 8.942630918256333 0.3537972430268957
38.51246398209452 -119.4939386223915 7.5743702887323785 1.1787505971534837
38.51229062747555 -119.49334140410807 7.816392823531158 1.6717826141322272
38.512359137369884 -119.49462505611051 8.633922056635312 1.1815635853216389
38.512299449900524 -119.49342668418065 8.770271483745509 0.3585774011092639
38.513425843209674 -119.4951427274456 7.453093342392742 1.0571824877108513
38.51457913663397 -119.49508180379969 8.236730921674726 1.6496305927513661
38.51324926098475 -119.49341142621512 8.605689702095914 1.1958736023918515
38.51434555639571 -119.49256542737953 8.990381331197488 0.3769299767158332
38.5163620359641 -119.49246429535694 7.281313093314324 0.9239526120796069
38.5169436953013 -119.49293548182038 7.919889242592269 1.6072669993136426
38.51637171495106 -119.49475219982759 8.352012780935784 1.194292422964469
38.51720251214287 -119.49475123707228 8.975660142106557 0.388689616526594
38.517685460686046 -119.49284883022328 7.281119017143743 0.7785572694019512
38.51841040014775 -119.49494076658682 7.764978472643801 1.5485838302744819
38.5191113446406 -119.49480303183512 8.702966636461147 1.1804108513898026
38.51829438248312 -119.4930184013148 8.986271201353432 0.39514218968965475
38.52189204033647 -119.49373688159191 7.647194621345334 0.6371832619936265
38.52064255619393 -119.49409745909857 8.10468665729614 1.478509647180015
38.520842254894625 -119.49234942952988 8.513596366480778 1.1703931570913195
38.521091598911624 -119.49239144371177 9.23045963217453 0.4110084620038119
38.52394558328846 -119.49365938751492 7.641446492424313 0.49134914916031663
38.524332419583864 -119.49435582704335 8.055582307016634 1.3955589643676962
38.522270382204226 -119.49343100726556 8.653914599061812 1.17454142429836
38.52263642607895 -119.49235950749103 9.080496174495137 0.45972586430912965
38.526074504286434 -119.49301159748109 7.304596950543129 0.33056677531897277
38.52651541910418 -119.49329197729195 8.08176523429366 1.2935851132006395
38.52459019973988 -119.49325604233925 8.465370201843161 1.192006462722401
38.524478579216144 -119.49268581436732 9.071436951600099 0.5225153791431976
38.52826519910981 -119.49511851951537 7.298068261928941 0.1539165735427047
38.5285182005812 -119.49277708867426 7.807683578942167 1.1820750047627762
38.52693262283621 -119.49269415101148 8.266562014280225 1.2101953052952683
38.52886458021824 -119.49309998280074 9.001642604062944 0.5914179438034638
38.53032896010005 -119.49468175610248 7.686934485786703 0.00377946350401667
38.5289409185992 -119.4950896243492 8.19008978087989 1.0729981124513188
38.529474867495765 -119.49407168137984 8.702224034644667 1.2078356046652394
38.530925259779444 -119.49284960133005 9.17858758556903 0.6516427915131192
38.53265344615901 -119.49442555137657 7.837337833959207 0.9629002776658578
38.5332119629959 -119.49308832666308 8.745752224870875 1.1680634163069892
38.53254479433799 -119.49395804756801 8.950926375528688 0.6856221716581125
38.53426096484237 -119.49241839175131 8.162687774269894 0.8487180990777862
38.533745896041225 -119.49507243082404 8.273157678679869 1.0842298800820005
38.535290492316506 -119.49242992556881 8.754932167139243 0.6805318098672166
38.53395529254985 -119.49502766814474 9.434007890005295 0.02173816531053978
38.53664148744113 -119.49243161234419 7.934424598136721 0.7266421028914462
38.53732874884436 -119.49472850003623 8.310249889560785 0.9575848234431744
38.5376709566334 -119.49443939703619 8.867389235486417 0.6328238713808353
38.53733835008994 -119.49337955173092 9.575836443683217 0.042127868211862984
38.539981220933676 -119.49334438421029 8.078918200056131 0.5978358211577051
38.53877864395015 -119.49325189878107 8.701577646542585 0.8030272991809712
38.53896782283049 -119.49346659607727 8.87130504412784 0.5528084030279827
38.540040012907156 -119.49239358313824 9.744515462554467 0.044462021956509515
38.54056633445158 -119.495146632539 7.90051179050799 0.501838263519052
38.54083020041131 -119.49281238572507 8.71247760006958 0.6611816107833447
38.54129399724384 -119.49440504365768 9.077704628248172 0.46667962903048227
38.540277241900476 -119.49322963982263 9.746919395880878 0.038504980109667665
38.54245834076368 -119.49462638965008 7.822747274909021 0.422235776570207
38.542445054074754 -119.49468886527333 8.626535517511313 0.5469611435339915
38.542650895635845 -119.49499591483138 9.10779815124365 0.40240797744088125
38.54306980895765 -119.49490752165904 9.347707099521566 0.03291821742805289
38.54597876668678 -119.49391115031526 8.105589131436949 0.35420407426756817
38.54476399136459 -119.49242583404957 8.665771138460057 0.4697132030411774
38.545030864650734 -119.49293343342784 8.964522215603035 0.3649183341045524
38.54661105339505 -119.49503223091264 9.308646547153291 0.029057804057299685
38.546973723352764 -119.49281700268719 8.160697996551917 0.2903725979084153
38.54863760600318 -119.49480899663855 8.257445811225027 0.42487053819313725
38.547035548276234 -119.49268400124846 8.802902416320444 0.33427050857925344
38.548956692147314 -119.49333108823335 9.705174697378096 0.021203188649275527
38.54941825057427 -119.49315620323513 8.05869132867136 0.24898429090427462
38.55107682453542 -119.49504007532661 8.613188928777634 0.3759915527336845
38.5498792613351 -119.49406607930327 9.207269901037725 0.290207108231935
38.550403261106204 -119.49431758942349 9.332789110969479 0.00300353640780809
38.55264768300258 -119.49441695688404 8.079680241954506 0.19703338344418336
38.55362183897182 -119.49372744729479 8.47027819126117 0.3085453382447235
38.552032405061496 -119.49498374977736 9.128740476619333 0.22907922466723582
38.554585917762424 -119.49415668971797 8.037851458896952 0.1415881700000179
38.55386127531419 -119.49386267008254 8.690069115836364 0.23251868907083953
38.554319874890474 -119.49452396252116 9.185522726659174 0.15823267435894295
38.55802909372159 -119.49518087946687 7.846676687200463 0.09281075191619553
38.55770160399574 -119.49245489612092 8.323593991185655 0.1580198366603574
38.55621159424569 -119.49472051457252 9.09987840657233 0.08573962369450099
38.55986273574848 -119.4936943065465 8.115934337368369 0.052575245458375344
38.560243731804114 -119.49309125931455 8.293971079581471 0.08970605494483369
38.55847521431999 -119.49419136373064 8.9658227157952 0.01631116184628842
38.56259524926595 -119.49268399189458 8.034528899754386 0.01657987707096867
38.560809271430564 -119.49241588022439 8.463214623864816 0.02747086741601588
38.449084932506686 -119.49155183335135 7.242425440985278 0.021104166702151112
38.44872686884251 -119.48969273654512 7.2638613976032795 0.11231666161002538
38.448388153318724 -119.49113144827791 7.841881780098163 0.03395270867323483
38.45040840501911 -119.49170708097742 7.077987585098658 0.11585350965710056
38.45148072035163 -119.49158844443163 7.676419482064034 0.2369755493632072
38.4507744732251 -119.49088529592743 7.970984592711683 0.1450969429791011
38.45433956730649 -119.49032952348668 6.8992910675516 0.19612018477795873
38.45274704468801 -119.48973236672833 7.438360038915555 0.3633069164419896
38.45334644782002 -119.49114466300588 7.838098904374794 0.2593806433820682
38.452401980734564 -119.49088777413651 8.601266930029418 0.013261388648628525
38.45490306318432 -119.49093017858239 6.850411878211759 0.25636542805329426
38.4566197547737 -119.49039551717082 7.518119800422421 0.48709552891516034
38.45535905139134 -119.49051649107288 7.937307856807312 0.3741837422585733
38.45612281128739 -119.49149406652631 8.473038484713527 0.08885033784829777
38.457901820152316 -119.49028150758019 6.9366837678064766 0.2952570844976633
38.458075823643945 -119.48953290735422 7.672974955330315 0.6037789947883817
38.45835190237973 -119.49018697638358 7.875039123524522 0.487104121882697
38.45720649713394 -119.49102442938839 8.333383885524453 0.15767336469914234
38.46099338109025 -119.48991091625973 6.8717546340788855 0.3192076796656891
38.460990312848786 -119.48972262808087 7.426625695828624 0.7092516201676241
38.4600721560756 -119.49068492912747 8.016260491747541 0.5963579166891179
38.460138148141326 -119.4903389946504 8.25906098756334 0.2462894443690271
38.46325118106935 -119.49161201175629 6.763862395832545 0.3438237013700919
38.4616422191158 -119.4918498638598 7.736026692482953 0.8023374873293423
38.46298621700757 -119.48973101200211 7.973371544808104 0.7025530864861431
38.461693496938466 -119.48965093652994 8.52025375988171 0.3398349829201745
38.46413171411236 -119.49160588809191 6.812557552867295 0.3856168364483546
38.4649247075737 -119.49228354460597 7.631177806943135 0.8858167319266754
38.46426875698688 -119.49163572427051 8.215348200590984 0.8070704377927066
38.464406715584595 -119.48991549582591 8.563086963013184 0.41723877855710273
38.464279454237534 -119.49177869758888 9.172460628847865 0.020387659850333414
38.46697323897967 -119.4922866026148 6.916505044584134 0.44724419831960144
38.466094507338966 -119.4915540655346 7.6731456088500085 0.9624189335964267
38.46777561685108 -119.49176157471614 8.023479117486728 0.901448440284936
38.467785358713364 -119.48955235424393 8.444018497193854 0.500409054925588
38.46631475081402 -119.4917307744188 8.936424487761373 0.08084860239316317
38.46875383837588 -119.49017300607967 6.904628399505964 0.5133696515526174
38.47009385280384 -119.48995195960123 7.394322612528267 1.0293281345527892
38.46881196301838 -119.49033878227607 7.782279767053484 0.9799520997449279
38.469770227329 -119.49158647721009 8.652210129885232 0.5832161958924412
38.46974182996948 -119.49154779379745 8.892656549510589 0.13309082949755133
38.471955555624824 -119.49112168010592 6.836865852306229 0.5636122098543962
38.471920648953706 -119.49139796662008 7.291073936897774 1.0783205883210072
38.471576244109386 -119.49103919077994 7.825415347428659 1.0429991766207063
38.47224238814989 -119.49050811257963 8.520338219239461 0.6386572478324064
38.47053301892645 -119.4918888141827 9.16157816687283 0.17593005033291892
38.47356265853346 -119.49004766713904 7.024892629192255 0.5877229297856283
38.47359365457335 -119.49076399733462 7.635066625429696 1.1032337562019046
38.47283697067223 -119.49078711351345 7.875199661443418 1.091449505729337
38.47439186734726 -119.49054710858137 8.694767840652844 0.6822687791693949
38.47318890206587 -119.48977046341606 8.779495622497096 0.21140837541739607
38.47583932961915 -119.49139521376557 7.0810719607916806 0.5898511138925181
38.47552942111176 -119.48972930441838 7.405074581409884 1.109138621506715
38.476727936150425 -119.49201802197507 7.760630785361151 1.1329526010227224
38.47646163340505 -119.49123423448178 8.580092698314049 0.721650003549295
38.47529662800311 -119.49007228517321 8.761053192041745 0.24419826752535206
38.47840966546258 -119.49120000795247 6.895467240854126 0.5832368178542585
38.478988937664894 -119.49037708651566 7.6421750722115265 1.113643575947207
38.47820427395939 -119.49173277801148 8.127531119147694 1.1745582814648652
38.47858218198294 -119.49142634137309 8.664731209727623 0.7629704018177942
38.479204992611706 -119.48985928946271 8.798536071775219 0.2846784093064224
38.480995473853206 -119.48944615678501 6.891149744919968 0.5813661296717112
38.481585042538214 -119.49100420482911 7.452102088278813 1.1370194885055178
38.48116714352195 -119.49170830049017 8.037667474408602 1.226934871756136
38.48140577133579 -119.49088664850858 8.643696386494186 0.8158943010645745
38.48057046964244 -119.49012101558532 8.847297464484178 0.339451121309422
38.48168733276439 -119.49226528940518 6.994262499373571 0.5904942868922703
38.48315807111755 -119.48972380913865 7.436050499254817 1.1890673647548313
38.48287534954637 -119.49164813958963 8.098973771252856 1.293603189869101
38.48203189660642 -119.49139279152175 8.537859745985292 0.8825907172181089
38.482242497789215 -119.49060546740395 8.929060941742367 0.4027445158033778
38.484897383806036 -119.49012581663101 6.880157430732032 0.6078105505599396
38.48496952658918 -119.4907629338298 7.6664040622360865 1.2628052471540496
38.48563476890766 -119.4920514979302 8.118986979557855 1.363630374738031
38.48413909378108 -119.49177457711181 8.25518686288299 0.9534337350794979
38.484536063082466 -119.49144688236059 8.995538885768054 0.4670843773429883
38.48664337854616 -119.49140267720745 7.122710091908013 0.6261531251714249
38.4866877653287 -119.49128793015218 7.452180291051514 1.3389371089291275
38.4867249867269 -119.49134194122354 8.026083561652198 1.4276115121898159
38.48765675176932 -119.49190139398395 8.456759589777265 1.022032628280716
38.486766337675604 -119.49060410546828 9.046650270023694 0.521737154346082
38.48977124780793 -119.49085926824408 7.181507137478165 0.6384951992597563
38.49008079381959 -119.49057168538499 7.301012017483601 1.397960720154325
38.48846184458197 -119.48975129593244 8.119501121412254 1.4759679309344804
38.49059810364559 -119.49200138344621 8.637945825381797 1.0830702089562196
38.49027590682188 -119.49200443112636 8.842517784179254 0.5600632752312048
38.49134359713652 -119.48999546040807 6.89817735961091 0.6348970642281649
38.49186784157621 -119.49202174330628 7.442530605174476 1.429674421740226
38.49073335526569 -119.49118771114787 8.180659964665074 1.5054465420215255
38.49259318857268 -119.49119582387466 8.517717209485225 1.1207821531183684
38.492077576692466 -119.4923113360005 9.047325597217688 0.586142989053362
38.494805515983764 -119.49079848248937 6.870977474188187 0.5987670722272252
38.494178174923604 -119.48944728327663 7.638343680966969 1.4327488469217469
38.494030333163906 -119.48994589854443 7.840820102035589 1.5197316882506675
38.49379642836763 -119.48969883733749 8.728292259744535 1.1417413906363008
38.49292689528078 -119.49000873921341 9.212704224419163 0.6034407972011051
38.496182188927776 -119.48991741734342 7.234899690470844 0.5119537768811696
38.4954547092112 -119.49021299751247 7.322739541333832 1.409233369168686
38.4960521004556 -119.49058651294852 7.782192089689034 1.5237334420088355
38.49658065139121 -119.48956459880782 8.328710618851122 1.1527970906354505
38.496227705539276 -119.49095303589199 9.132274027349236 0.6140145849786384
38.49861307947897 -119.49138546609694 7.080183294759899 0.36338848005374
38.49750281927981 -119.49123904122244 7.64441112668368 1.3605254155738797
38.498038322222754 -119.49154021503799 7.913144738911255 1.522450219374069
38.49882844162374 -119.49222381968362 8.6215239287149 1.1596816320877472
38.49932745476259 -119.49164519890529 9.239981063509905 0.6202903640544918
38.501436744516226 -119.48982651104777 7.140711846414275 0.1543428933782174
38.499624137280094 -119.49010380140052 7.3492091130514 1.2857409071676982
38.5008290214121 -119.49036201931837 8.071729065308812 1.519566695596597
38.499722986213236 -119.49229892670164 8.671333142980268 1.1665352264476825
38.49973604517055 -119.49191405068035 8.874072371972343 0.6250145162110324
38.50304125006957 -119.49055210975628 7.383829005144583 1.1819716417158777
38.502126289211716 -119.49140953748153 8.123371049012837 1.5139453642720977
38.50379448303155 -119.49049890361471 8.41155837221202 1.176065225808745
38.50195242509061 -119.49183149140663 8.91323015557501 0.6307089272544731
38.50462990139695 -119.4918067975479 7.259684439938741 1.0472892143389387
38.50540279941084 -119.49057464350848 7.7894681947193485 1.500173414557098
38.50560061273456 -119.49003876605478 8.635817669311729 1.2065391017152425
38.50527584547704 -119.48992320598357 9.065071622499275 0.6416876328117704
38.50785911303138 -119.48976284241611 7.554271265057668 0.8853623223829935
38.506420899932614 -119.49025018130006 8.140653977979374 1.4801746332127506
38.506373642618506 -119.4911304212885 8.63198253138481 1.236264695385664
38.50707419727021 -119.49050646219591 8.848467186509023 0.6561681302010743
38.51031512363015 -119.49134855928872 7.4182748251184645 0.705485673546225
38.51005578159248 -119.49023872955368 8.015551646490552 1.4496697620950785
38.50960605501733 -119.49056599928892 8.627568425871592 1.2533111767894163
38.50891223811346 -119.49044218351138 8.93804220955966 0.6660925988810897
38.51116551478299 -119.49006425278262 7.7099467226985405 0.5169245077798261
38.512389604253045 -119.48952839523594 8.06872456520832 1.401474767827527
38.51302308566068 -119.49188589952564 8.628891432660394 1.2578329392394385
38.51129144923887 -119.4898239076443 8.947460122674233 0.6780188484360359
38.513203933731525 -119.49115582799509 7.3401011450688 0.32530658588011857
38.5145416684859 -119.49210660072374 8.114782431511092 1.338923541297199
38.513149265386026 -119.49089744929721 8.269011242181445 1.2737922559316417
38.51517040417748 -119.49176211389127 9.095173307138902 0.6958765180194358
38.51544665572884 -119.49108117494681 7.591971737077787 0.13362773060801236
38.51660195014548 -119.49056747432441 7.763722196620974 1.2701088966483396
38.51621477773437 -119.49100862728311 8.565870698958353 1.2882071130964954
38.51602559353745 -119.49111862521202 9.089295678136358 0.7098140911475349
38.51885584246261 -119.4919719619179 8.103308621054929 1.197826959212472
38.518724153950444 -119.49152648814795 8.645498129275776 1.2848071781395387
38.51935827550082 -119.4914201800128 9.211711759706434 0.7217275506387569
38.52015659905103 -119.49004597652137 8.024996089604567 1.1129755109328572
38.52010054890322 -119.49220941136116 8.402628086713497 1.2697560584104384
38.52098553123103 -119.49078476252079 9.046830921589587 0.7334538514845361
38.520477267063505 -119.48962692470622 9.274557033069438 0.018958673720928198
38.522458568313176 -119.4919715416621 7.87871614138082 1.0077712528661122
38.52368556957173 -119.48950791108801 8.408320173858316 1.261319836205363
38.52272251215313 -119.49171548381237 8.808664186810676 0.7620336948029599
38.52224384248679 -119.49053769883214 9.504282515082348 0.06508294525656519
38.52506093149853 -119.491430403824 7.882896288050139 0.8906258914448159
38.52540356750302 -119.49021458499456 8.316862255131625 1.2441733519702385
38.52493550082769 -119.49047804905193 8.78128358367784 0.7928278067691807
38.52638651202775 -119.49017575388456 9.572820744761374 0.11278308223496647
38.52671660103889 -119.49035916682438 8.209935667362727 0.775913014216369
38.5285822409575 -119.49190971206738 8.457893108568218 1.2095986443114166
38.52714300236473 -119.49213991843901 8.895352133482097 0.8173162452735319
38.52858621129229 -119.49096919037015 9.529217693211898 0.1594472975453638
38.52889990812587 -119.49077225952611 8.162805406655187 0.6717255425931277
38.530332370279076 -119.49089470730956 8.699298642362708 1.1516177250630526
38.52949482278029 -119.49097296975889 8.9897265332719 0.825795653914726
38.52895591255351 -119.49141860721642 9.541966195560242 0.198699287452144
38.53264064928875 -119.48966965063026 8.213568092571235 0.5789831998667891
38.5311518196625 -119.49009486206431 8.372654998331255 1.066268523776001
38.53147949975253 -119.49110416364915 9.194162699616047 0.806848809977972
38.531854026522495 -119.49028651435377 9.274413883401005 0.22251441596881763
38.53362106495721 -119.49213594245772 8.185352678892956 0.4908259757187897
38.53342574496644 -119.49009268980934 8.322937044665442 0.9518582539417414
38.53384499722474 -119.48998453406662 9.010283244493788 0.7522237489940478
38.53502058106 -119.49180601544673 9.339809970859692 0.22509558021868104
38.53573104164227 -119.49009474354305 8.216362691534286 0.3961032665645024
38.537376423308736 -119.4917311947813 8.4371752852448 0.8092146960404204
38.53666585204874 -119.49037461969411 8.98796099140283 0.6609811811458457
38.53738229388728 -119.49131824609582 9.65707212318908 0.20606967673425777
38.539983415905546 -119.49004347977446 8.005978462396955 0.29421942460619993
38.53812306560662 -119.49191639898406 8.714661160372309 0.6510618971105103
38.53793267355535 -119.49164305793734 8.751323586893175 0.5452524314321519
38.540046600834664 -119.49119772814751 9.70745366574533 0.17211250215141718
38.54139359566981 -119.48945242133935 7.932110592854917 0.22677547592378353
38.54096260095386 -119.48984865277724 8.397601276323712 0.5164271176068572
38.540505005295444 -119.49162795670645 8.836426392906407 0.4331108902751105
38.54060763916936 -119.49102127644571 9.376969722620064 0.13513205964709002
38.543431832388265 -119.49044881120112 8.12475264835311 0.17587144284290693
38.54358826417299 -119.49123612567102 8.346798117486927 0.41395965790705364
38.544166469217465 -119.4901310518502 8.93240951576426 0.3539752117369483
38.54446009762504 -119.49069228950806 9.740571513211902 0.10574974741220478
38.54689317661815 -119.4909867493964 8.078964661511652 0.1384487383990756
38.54635804935564 -119.48994066853055 8.298084201894682 0.3421356751596604
38.54642155879292 -119.4898275833606 9.191729210413822 0.31276733515672367
38.545751312312234 -119.49092916988819 9.672291490995763 0.08599764391425159
38.54760049855078 -119.49102911019196 7.926820221568746 0.10813383322280215
38.547569614338045 -119.48947062883754 8.48450872591707 0.3046753115629531
38.547394208007944 -119.49145407367996 8.9634574568761 0.2873922367874166
38.54780313876453 -119.49200793250914 9.640031483567721 0.06887736147462165
38.549534293000974 -119.49184775821507 8.213159767396355 0.09825425360127799
38.54941213281379 -119.49083503793246 8.442027343253649 0.27101725913563907
38.549733858388294 -119.49195618543071 8.99798293275573 0.25342154798145955
38.55023813775313 -119.4903993686795 9.643810992887882 0.04547950279681726
38.552622018232 -119.48964744429291 7.84476633805742 0.07296907297587857
38.55241938076829 -119.49140491874981 8.400161243169427 0.2217563961768265
38.552903359150946 -119.49069899091974 8.879682855395046 0.2028372567192076
38.55144114943883 -119.48945694353675 9.329108367417476 0.011519541080925481
38.554639621798316 -119.49144636480798 7.875720070454294 0.037301268304798046
38.55425019551356 -119.49033081453295 8.511092840210601 0.16219428162806185
38.555347006381574 -119.48980365246457 8.765267554419506 0.1403652527498548
38.557472465536286 -119.49151054376381 8.066903958083628 0.001945721867845479
38.558090860667264 -119.49006053464007 8.678922673395578 0.10056297703733608
38.55765932789639 -119.48955603681549 8.870002263586569 0.07345059994410431
38.56027528403359 -119.49050698805134 8.49242720771279 0.0419296869382241
38.5583294851557 -119.4921347821049 8.863352409215107 0.007322456737365853
38.448240942197565 -119.48706082615385 7.161112696816671 0.0069489277844795435
38.44782322965247 -119.48665996550749 7.287471665372682 0.09460581806687464
38.448850990195275 -119.48800949797021 7.788135841403401 0.016904120696844882
38.45129949867573 -119.48897873092203 7.207437906081918 0.10282254001519367
38.45161610657449 -119.48889204734928 7.526941292739045 0.2149653334621788
38.45079602378116 -119.48668319560922 8.245853773927719 0.1171454594705973
38.45317089154063 -119.48811767256883 6.8819731448374055 0.187316492233442
38.4541157804934 -119.48677185390164 7.519277004129818 0.338646278483362
38.4539651737125 -119.4891911519945 8.180296167302528 0.21847799091868136
38.4547651407781 -119.48940353451991 7.150816647042314 0.2531613552534704
38.456555637866934 -119.48830044644903 7.415242596704042 0.4621381794740725
38.455283718905655 -119.4872559893773 8.072630576706596 0.3189481366723832
38.45575621070296 -119.48852890274571 8.685996760077668 0.049355406523418494
38.45794170800819 -119.48684250946866 6.976950900766378 0.29438079278064394
38.457569857291766 -119.48694623950512 7.716700889733897 0.5808456191957031
38.45901622673307 -119.48671503265815 8.147494191145576 0.4191747384923718
38.45684784627887 -119.48855602484986 8.490673410758072 0.0991633620601672
38.46012360982188 -119.48690751396846 6.7635587102302255 0.31082058088140485
38.460708155984314 -119.48902390496842 7.7192289722924725 0.688666950885778
38.46058500091546 -119.48919202543672 7.76023842663589 0.5235414053619026
38.460325340715954 -119.48742904659235 8.637211064137258 0.15831524148050571
38.46235048965277 -119.48829320985995 7.148515384801793 0.31456106465122463
38.46172498704265 -119.4872879094961 7.480664241770645 0.7800020600843379
38.46160849479531 -119.48678241180986 8.238323746284273 0.6353482296602211
38.46349014100129 -119.48857508828546 8.648713695818431 0.24655350526286365
38.464699802702604 -119.48829345889845 7.2114976548499135 0.3256483864568653
38.46463215423678 -119.48817497877961 7.629714469567171 0.8533508836197886
38.46438922230203 -119.48689171952114 8.125757824318606 0.7496299911147739
38.46446206731844 -119.48785055582007 8.500555959935502 0.3597411632689966
38.465797234584144 -119.48853602232876 8.948520030660175 0.06874065327763171
38.46721574363009 -119.48832137289938 6.798227657876665 0.35307667473197263
38.468037061014655 -119.48664306247417 7.5072765200669815 0.9111659523087534
38.467820788527945 -119.48891010494123 8.187531884280284 0.8551305113926341
38.46596947201824 -119.48899964283643 8.313954580277866 0.4865792250553625
38.46689997188188 -119.48696720486737 8.892140194648759 0.14092660849613378
38.46857131293751 -119.48872751584963 7.228604124512738 0.382863577161094
38.470019645423285 -119.48774600632345 7.483656221675393 0.953775578569094
38.46833392707322 -119.48701103059871 8.004339126346931 0.9431116712003065
38.468999133133785 -119.48939293279831 8.58230374146688 0.5988204699876649
38.469259417236856 -119.48682900018004 8.88663650809237 0.20304361002590382
38.471322883036024 -119.48822599546868 6.878561242257006 0.390888180142501
38.47174691243096 -119.48833743717941 7.390790943080333 0.9749473961104664
38.47125964712696 -119.48713749630625 8.082533690341979 1.010197808542408
38.472095074094184 -119.4885193212151 8.668578627083942 0.6813070328368106
38.47150439573068 -119.48794938292902 9.173836227139912 0.2514926407280559
38.47480956676224 -119.48775829544127 6.9803243845175285 0.36439633894323037
38.47357911861478 -119.48693999867615 7.721116689741611 0.9677183169139075
38.474339060650045 -119.48724609527636 8.09918752995677 1.0634092381859912
38.474634316699344 -119.48740378551356 8.533539745008422 0.7497089824192174
38.474257602650326 -119.48780932165698 9.113466210681626 0.30279233106300507
38.47610237386816 -119.48907181304757 6.792241413231648 0.3095528429789904
38.475918915435315 -119.48831194186246 7.719017798413255 0.9367788490521335
38.47547384105295 -119.48704419618525 7.84197468035758 1.1134054618124423
38.4766937512994 -119.48764613447081 8.60213595744204 0.8107217012376495
38.47500934081917 -119.48682600271282 8.792018450465763 0.3601124546183142
38.47903433771706 -119.48656500616991 7.072169842331561 0.24435778388023946
38.47835592571552 -119.48838614446926 7.378351792068731 0.9027260387501254
38.478552086408264 -119.48680646302252 8.147693422077104 1.157066014139222
38.47904677216709 -119.48720636859478 8.440394726676798 0.8715076521475817
38.47859603443199 -119.48926094277255 9.076957366433042 0.42184830884665275
38.47966524810028 -119.48682680823877 6.9331036783423095 0.187201558312366
38.4796545123624 -119.4880928418702 7.6029252079119445 0.8913102110020952
38.480383179469285 -119.48908702924552 7.976737013743517 1.1989830479079207
38.47944705143189 -119.48941463570087 8.671653142774739 0.9364262662550684
38.4797058823302 -119.4877508377587 9.05319542196318 0.49679853437456634
38.48279643127428 -119.4884683333171 6.920081892402543 0.14821984720914394
38.48355932633863 -119.48798494013465 7.701915527069259 0.9166031486882579
38.483677792161025 -119.487734008128 8.155065435970755 1.2502002658011524
38.48159481308126 -119.48906650216382 8.718316850000983 1.0055653649460525
38.483631876342315 -119.4890996148652 8.887507987384831 0.5727799807782048
38.484200072104166 -119.48865541142732 6.967664639642719 0.12688171706687246
38.48586887346555 -119.4879015648464 7.593890523589909 0.9720241185661728
38.48510608484218 -119.48909105128479 7.889199448126134 1.300760721782322
38.484406935605826 -119.488145224158 8.634765050126667 1.0750621343581555
38.48585263210143 -119.48749994420908 9.212072840960351 0.64404261644519
38.486032611041054 -119.48711845546602 9.743107752422109 0.03153940059529831
38.48747253255183 -119.48924886714573 6.8112070991067215 0.11554601684492743
38.48729996784112 -119.48667981071229 7.635886233191849 1.0350456689397696
38.48719124110312 -119.48717281505728 8.216930574688124 1.3511672602187503
38.48793494751768 -119.488360297485 8.465953819136113 1.1394461637386513
