> GMT_LATLONDEPTH
> out/cube/20240710A_MSMS/PointSource/FF_4days
38.50152965780188 -119.54340289547547 3.4859572148975535 0.5043354421635344
38.50343685484283 -119.54134302730766 3.502322901912696 0.5510673394450293
38.505905183438664 -119.5422289643768 3.3960296782996684 0.581993587203204
38.50735569411489 -119.54134785503248 3.6338664224954833 0.5886492758885419
38.50697061904647 -119.5428848647304 3.9515942027083013 0.1233336888353342
38.50884758360894 -119.54147086860415 3.335561350016957 0.5658267260989844
38.51057150822837 -119.54273067952981 3.929141160290461 0.24937400684889202
38.51160329821384 -119.54390194895488 3.7734486426085136 0.3278079341189787
38.51485873744027 -119.54247102675953 3.9817201801771085 0.35049308424505465
38.517567416198375 -119.54154248612294 4.1848933832235415 0.31515022441896423
38.519786323472054 -119.5424530889261 3.8670398742247007 0.2210070897618079
38.48263158964327 -119.53887858656127 3.63283337440765 0.013433855896739367
38.48446831716772 -119.54040197892836 3.2654996997466994 0.10650122537151252
38.48657886542726 -119.53862275415224 3.2563819459395873 0.19550433077678908
38.48910826952352 -119.5407788948987 3.1177099187986057 0.09403937284730897
38.49049900425621 -119.53986714596965 3.4554343639710106 0.28428407375425
38.49184546132709 -119.53876510892525 2.9521651221016376 0.16984995895232624
38.49065715613116 -119.540145866847 3.6106790559757473 0.3609934903032816
38.49425750568092 -119.53988479827913 3.2265356980430013 0.20151014171581563
38.494241724962336 -119.5407042418778 3.4067388607564335 0.42466425645695516
38.49553152987027 -119.54042398047523 2.948081488367986 0.19265024030119357
38.495194177490156 -119.53842244024617 3.3316197798215352 0.4698243349233813
38.49841054383001 -119.53875296303374 2.97449226875241 0.1499659762641191
38.498430112128624 -119.53955680981232 3.5521694820499574 0.4930926920416725
38.497363321516076 -119.53854814878255 3.9859994226892805 0.06603253814812893
38.50120887633878 -119.54123758830724 2.8225780797184834 0.08219208260728393
38.50036682594575 -119.54014385014509 3.4881519294771297 0.49831774681162444
38.500969689418284 -119.5390398980238 3.8000734961034133 0.15218955259448577
38.5028967632089 -119.5408277680748 3.277766662609375 0.48518194944812165
38.50318456323099 -119.54004224331206 3.8780043169613165 0.23225891378768163
38.50601284392578 -119.5399316927906 3.4711769847489578 0.45489916644578215
38.50477752535 -119.53905084743019 3.8264122382657395 0.34209362130921755
38.50857151421702 -119.53992899475989 3.3021226215569754 0.41511148271547565
38.50653076943776 -119.53984117108484 4.1269514418823 0.44679846834280623
38.51053773787869 -119.53919289939627 3.746794339638583 0.36794309644785295
38.51013160542826 -119.53900948304104 4.026778630986968 0.5262739986184658
38.51102853010267 -119.53878219799981 3.61890051410736 0.30482282857724713
38.51160149570629 -119.54025425753326 4.171999818017976 0.565259268441246
38.51360096797346 -119.53861727204726 3.3022564538253736 0.21413870292674766
38.513935829319266 -119.54045771095592 4.171533362147295 0.554831200295652
38.517226418161535 -119.53976936468136 4.2427939909016175 0.49483059557408815
38.51609897131855 -119.53936063087995 4.415008860328514 0.038646814555795245
38.51804801492916 -119.54104559958915 4.241588893979863 0.38636868071829966
38.51960123647407 -119.53981977012721 4.311079312228179 0.08679755115336998
38.52181315742595 -119.5406776222018 4.234603855184954 0.23106035740599362
38.52079261047724 -119.53915835929014 4.673249895087684 0.08579443616888548
38.524083661839654 -119.53859867704226 4.127974325547223 0.03363887976760242
38.52368225489388 -119.54101936799034 4.279036056269553 0.03639754626966115
38.48359334361562 -119.5369966403146 3.570299815152499 0.03889561741406047
38.48432239231295 -119.53739738747603 3.517463865980001 0.15024091758663072
38.48762044933293 -119.53703195126334 3.587957762060196 0.2355399865985016
38.48860139695764 -119.5374571731911 3.538241510611487 0.2919423518182694
38.4908500133831 -119.53658270307645 3.5913913954601475 0.32814538970264134
38.49446056291437 -119.5368692286155 3.7497943004002305 0.3473190369048035
38.494487178832195 -119.53557262381287 3.843531117525057 0.09793119349331957
38.4965851850434 -119.53791759197559 3.439529507169973 0.34348618402378167
38.49669553545567 -119.53728383099036 4.1976582062901775 0.218992409136834
38.49838549837203 -119.53723214733638 3.4263990886497835 0.3119925878909978
38.49907060957806 -119.53642468690346 3.9324150720082374 0.32684058485602047
38.499985353323126 -119.53816486564713 3.374885119465736 0.2487958707218015
38.49973330583262 -119.53788348070755 3.7971689443355134 0.3993474336958825
38.50393457390404 -119.53615020137471 3.4704224143289544 0.16623547601526525
38.50366898516215 -119.53630777411279 3.909256753717347 0.42499716942216853
38.50509479900458 -119.53636740162985 3.464395020818661 0.07541388671289598
38.505379009740004 -119.53619050063077 3.852349454257518 0.45486811985538966
38.5079272706854 -119.53761414868389 4.0722536948252355 0.47585754269868374
38.50682924830093 -119.5357307351193 4.561731364368759 0.09809003981823607
38.51052596913164 -119.53769620849855 4.013997067151105 0.4778048582952251
38.50954017316886 -119.53558349522089 4.4100325691064475 0.17056576408283441
38.512530708047564 -119.5367250556983 3.998684272596037 0.46927075749217584
38.511370387708155 -119.53757743162292 4.6904616021821655 0.2507939018724723
38.51522294206927 -119.53669379461675 3.959406626053462 0.4283110089454608
38.51332370080069 -119.53696553446943 4.2743523526951535 0.32339804779090137
38.517259900383195 -119.53744012143113 3.760552757253105 0.35525718634332804
38.5157862822653 -119.53771618389717 4.675146243537264 0.3606020410926456
38.518307302115105 -119.53611310939306 4.159285683492624 0.25470766664160943
38.51901146135653 -119.53552422839955 4.587018132746796 0.35908918710385845
38.520755114523745 -119.5381487566769 4.191212374410492 0.1278117023606232
38.52131399967039 -119.53599419511549 4.550018595851947 0.32089667303701036
38.5237916434839 -119.53635328247528 4.725316051823986 0.25048843771257834
38.524638234393855 -119.53737690280596 4.650441161714464 0.14766582672797707
38.52754751738869 -119.53710130916072 4.71376116970929 0.012611762823760819
38.47990293500357 -119.53533124529041 3.3429944082627445 0.014817255403608183
38.481832581307714 -119.53328382480561 3.27338569461507 0.11127195121055646
38.484354814300836 -119.53323638622228 3.4319569669190595 0.18055369117935216
38.487375560986685 -119.53377817384343 3.646667734166764 0.20515123561408544
38.49043735875795 -119.53336948774373 3.3698965748754803 0.1915147881711743
38.48944074176145 -119.5332293752616 4.127164798335813 0.06609388893588143
38.490942069650075 -119.53424980216055 3.681761300561138 0.15873058122893216
38.49267769993662 -119.53279204698696 3.895151287640757 0.17481739750557185
38.49415665759745 -119.53519452035285 3.746624484923563 0.1160887385327441
38.49426924181691 -119.53280399299884 3.863019207927106 0.24175928117807527
38.496818710658026 -119.53405183174104 3.28535175681749 0.06127497628014954
38.495328853556835 -119.5333455715184 4.055689055366499 0.29551242293723246
38.499343633106974 -119.53371178770503 3.7780364571559883 0.34828790049486386
38.50050239314015 -119.53536680509555 4.094247857940477 0.35483114156124546
38.49961951568989 -119.53279696939184 4.5789057957073345 0.037999907260757276
38.50310178269278 -119.53442309349457 3.771840310798365 0.3185841636145748
38.50366880423921 -119.53264675211503 4.708306963823388 0.14302581485458818
38.50429420241211 -119.53497620221124 4.100565218826267 0.2755791501338638
38.50625115263078 -119.53442564406396 4.380689700338515 0.23950270686504685
38.50731051141782 -119.53337498683113 3.8948183768278835 0.22347828911205894
38.5073492027978 -119.53366673254612 4.349916381655896 0.2952281404789728
38.50916809569381 -119.53365098608303 3.754035097446793 0.14310511348598248
38.50879001666425 -119.53351192547078 4.699209219631627 0.31111902067388936
38.51098021277532 -119.53508080626385 4.244776617107003 0.062240226098862296
38.51235918891783 -119.5340032047278 4.288220872610487 0.3177319671394433
38.514751899050665 -119.53264027907036 4.475957056175235 0.3100174647043067
38.51660146013356 -119.53369623015455 4.579700963292089 0.2806708911023554
38.51880937771911 -119.5354825417141 4.300759991739918 0.237032128246381
38.52006579150754 -119.53501891149084 4.445109524015246 0.18379750243809667
38.52390271460511 -119.5331424950008 4.639126352987978 0.12065188823488897
38.52571374489538 -119.53349422849988 4.574546840918716 0.04014141686262058
38.48394329843579 -119.52989202193262 3.4863208897768905 0.010916852157701265
38.48713830699143 -119.53052781163949 4.1543830816414395 0.066873056108991
38.48901509411669 -119.53222919866407 4.169590700804198 0.1418592742143441
38.4925411757748 -119.53127110476515 3.9793059614139037 0.17431705525116944
38.49300108065894 -119.53062152646116 4.099458790057788 0.17237002853215497
38.49557766924507 -119.5316905432101 4.216722911168962 0.16205915141054314
38.49516836520466 -119.53166815385725 4.592448007574218 0.03849783409646034
38.49927214459704 -119.53068347753121 3.8340649789330286 0.15403361353527234
38.499326422059944 -119.53212377162419 4.655324601742246 0.1312057861889912
38.499664839515 -119.52991725061163 4.087143530520543 0.10791536185020793
38.500262035583354 -119.53256042537242 4.269914057905923 0.17947357044831957
38.50206627739983 -119.53177096737906 3.8154122374343546 0.022511753167083405
38.50309028247524 -119.52984374936801 4.559847071780819 0.21778768596444592
38.50469999732616 -119.5308145884275 4.4195582409976515 0.2386257175332269
38.50817575794219 -119.53086394912283 4.526784531404054 0.20780902690327774
38.510210149448376 -119.5305734254395 4.429813490566585 0.1401353351619803
38.51168688511846 -119.53040124957465 4.261983646867701 0.0511392862438965
38.487712433986964 -119.52972621743801 4.097230696426908 0.01298706343086968
38.48955056045225 -119.52770272344627 3.8151969411952993 0.06958349772920285
38.491269102602935 -119.52815774957243 4.225600042171908 0.05253599029188677
38.49261060642074 -119.52931818192609 4.648545382137584 0.053659056170901005
38.49329369156385 -119.52940592479627 4.741780033289683 0.12654399760830737
38.49564895398204 -119.52929972510844 4.27199581847402 0.1525425076626587
38.49889086918015 -119.52728437721791 4.615753770763812 0.1358007237986595
38.49974468092785 -119.52749453231365 4.608484511061197 0.07958409523520178
38.50290063709217 -119.52910432541258 4.300974131475646 0.021834338243973486
38.50553031176548 -119.5294610326382 5.216647065610435 0.027381382879523533
38.50642184116486 -119.5275230700448 5.153783511995563 0.04711096130426827
38.50916284400548 -119.52852838504344 5.030281560670267 0.018402003178374718
38.487228200896084 -119.52682435530696 4.481179036553709 0.04153863004147862
38.489775200139675 -119.52404090289855 4.563921276680634 0.16507771703744534
38.49176395485111 -119.52649290885142 4.453992745223764 0.23843581360625785
38.494634108988734 -119.52448458536988 4.439131405963942 0.24443891284322639
38.4960818644426 -119.52587947433747 4.544201591458011 0.1931134482577765
38.49606265421535 -119.52614150298913 4.9755371909825135 0.04622012742519013
38.499373365942745 -119.52669896077305 4.292549413455546 0.07271502877100015
38.49958918288977 -119.52657579972798 4.969715749666838 0.12717818401073686
38.50123175856225 -119.52470867148172 4.954791285843515 0.16211130440920077
38.503772715316344 -119.524074827745 5.011324241227781 0.1849145824031283
38.50581519977205 -119.52661328581537 4.988961746141925 0.20568725624442333
38.506832692502265 -119.52684393525958 4.944392762770139 0.17406998730198883
38.51057161801393 -119.52602835153331 5.010621425757828 0.10337609121764652
38.51123022098554 -119.52466956647842 4.893729512743852 0.02337931095311585
38.48743962797867 -119.523406696133 4.2515240611016285 0.033185745337345425
38.4905036897589 -119.52196408276964 4.546946148386412 0.17837852417244493
38.48875873309595 -119.52136698334168 5.198896235993766 0.07294317055375046
38.492681023690515 -119.52141158554721 4.619373344680733 0.2419656948277367
38.49258602546251 -119.52312046734205 4.959284366286051 0.19971456682735145
38.49331175304534 -119.52340044768047 4.661005936806046 0.20983177478636494
38.494311325610134 -119.52340202539455 5.036225070183292 0.2663532133622291
38.49624012801501 -119.52160000625618 4.546705093349588 0.0949312830078033
38.496773541309686 -119.52143746112908 5.026107974326535 0.31353960106963236
38.496316955727295 -119.52345522743478 5.522792143183397 0.002837829973730406
38.498096674615525 -119.52110457099995 5.053040597675791 0.3359566059769033
38.49923412261972 -119.52266253290911 5.599239888741916 0.1097412403830921
38.500319356455435 -119.52255694882375 4.936839082091592 0.3092164824691738
38.4997262347011 -119.52234903591143 5.73656645632256 0.19963488040673313
38.5019807873912 -119.5228458470171 5.214706794855672 0.2547611360704624
38.50211299305295 -119.52319086819608 5.395690822223329 0.28535981323988335
38.50598415653138 -119.52327966659098 5.225799103334491 0.1969401336248645
38.505752940246516 -119.52236407153039 5.59924184576348 0.3228443688652273
38.50735457937521 -119.52327361973353 4.96538305530956 0.135766406056007
38.50723750526957 -119.52183526163724 5.4411725929814985 0.29697228937214354
38.50868241580388 -119.52372897060877 5.0476205002092245 0.07691407715816548
38.51028656889039 -119.52364796778208 5.652299785304096 0.19530782085850934
38.51230855846787 -119.5238992482761 4.940716392780488 0.029708661120744266
38.51244378643329 -119.52265768340317 5.400936751259855 0.09106347314672432
38.489537769135445 -119.52065542397779 4.950947365602996 0.1277541732689771
38.49075205474056 -119.51852481633648 5.12608989405844 0.2348702505975703
38.49249956953805 -119.51936367499367 5.4381288399453656 0.08805663432066412
38.49289318674365 -119.52056521698847 4.807653087489061 0.2853921998242821
38.49467051517106 -119.519425220056 5.299312403413443 0.256192186116595
38.49311414886167 -119.51927905062414 6.019424467612203 0.09069602508862322
38.49544707154472 -119.5201475000833 5.2211838507489725 0.31111162406639714
38.49566422649727 -119.51933332760383 5.374924452998103 0.3869737207779705
38.49700219668005 -119.5204701719966 6.182816116469818 0.20308873918758555
38.49918144592196 -119.52023473060194 4.84272329021833 0.2783907051348219
38.4991552285628 -119.5191325490528 5.343641606089606 0.472833847113501
38.4974183961386 -119.52006535649755 6.010361084549814 0.2843356393626052
38.50020646661358 -119.51982697787706 4.829646067853745 0.1819711695807108
38.50093508479427 -119.51836128937002 5.542659856972275 0.5165760047704977
38.50017919709328 -119.52092477136395 6.072253754370147 0.3211188879318094
38.503778176742074 -119.52002265045698 5.156541919868147 0.08701020709503325
38.50287493736969 -119.52090956047978 5.250445439473354 0.5498184552879258
38.50195506915768 -119.52082094451026 5.951190515581081 0.30574622457347794
38.504128659475874 -119.5210337705018 5.285726847424263 0.5275622722492591
38.504757480821496 -119.52054221160608 6.149839344331809 0.2654862741297486
38.50757745360175 -119.52000922630687 5.385123803477723 0.4320695306988393
38.507166182827724 -119.5202254505921 5.858544317634703 0.21451169310014165
38.510067200920425 -119.5183334707132 5.552013600338473 0.25810865491691715
38.510661133785504 -119.52028179585454 6.142142879765761 0.13923079154651982
38.51252432503279 -119.51877207231165 5.352643196201413 0.07201803718255496
38.51256496755553 -119.51913745354048 6.0090776337025815 0.04263196041556355
38.48798036589243 -119.51810189867567 5.810658028891335 0.04376852653159468
38.48962663687032 -119.5154957620915 5.596652173525842 0.07674373093692352
38.48918492964941 -119.5159874780455 6.024254290484788 0.2002506690119221
38.489352548012896 -119.5175207370682 6.325821283769677 0.04487022684602031
38.492407044962626 -119.51625828570708 5.353539364808248 0.2448232168118571
38.492515351324506 -119.51742848945331 6.115381167145999 0.3656813359745037
38.4919808252569 -119.51607454096869 6.3693672549635085 0.17638819328496752
38.49339368453478 -119.51664977028793 5.513954737507476 0.36419687974545745
38.49387115717544 -119.51720914879446 6.239905205534567 0.5380383941990864
38.4946465600769 -119.51609505581044 6.714817757014931 0.3089605085086841
38.49573128415608 -119.5175735895727 5.358911642693601 0.4360191694906038
38.49679898946516 -119.51806262198541 5.862209881325752 0.6854601747375957
38.495969913692285 -119.51644814607876 6.381046834538358 0.4272754007813581
38.49578585439934 -119.51634249675881 6.969411723958574 0.007578181215778523
38.49812707235955 -119.5173796220994 5.368741691786392 0.47903689326451937
38.49771086335178 -119.51697103095182 6.161098349510068 0.7780281842176122
38.497501191249455 -119.51805632193977 6.28917911520996 0.5072387636119864
38.49780254906979 -119.51732943552922 6.8456140046997485 0.11746645134507476
38.501406017367536 -119.51542293844894 5.524485118050924 0.4599373233649975
38.499686622226704 -119.51774799907056 5.7580527643718815 0.8046008736401561
38.50110244560598 -119.51639306530548 6.419413012297909 0.529607525967717
38.50130910232384 -119.51680084754707 6.863652524458898 0.20565953134274317
38.50215712116932 -119.51656115278621 5.380781160499442 0.37075813374396416
38.50350027876106 -119.51628572893465 5.884299821903797 0.774428103207559
38.50331680776772 -119.51650688446946 6.602030293263895 0.5246050277856992
38.503135862752785 -119.51698559458545 6.792208199585328 0.26614153512071936
38.50454514345702 -119.51751352765821 5.2771889591630385 0.234728034338999
38.50564275454549 -119.51586669004443 5.973145892583731 0.7199030268798463
38.50625858660613 -119.51816641972482 6.547613269561346 0.49323021741579026
38.50614712458352 -119.5180070453442 6.982352874344414 0.2908048626868212
38.50735672659274 -119.51669012404334 5.433869918622364 0.0523279665637375
38.50695825650318 -119.51684195438138 6.084526558617293 0.6456485845904295
38.50690532448621 -119.51623327771755 6.589950409554135 0.38618515287982
38.50748150682307 -119.51614823056701 7.134324215486739 0.2671973193632169
38.50983031970529 -119.51821933838951 6.010235331599183 0.5622587756684426
38.50900302232592 -119.51662023679944 6.372532278959444 0.2028436798412462
38.5102525452995 -119.51707774503356 6.935008050030028 0.1551719916735562
38.510857957744896 -119.51681284185646 7.647865046781133 0.041258127212145786
38.511910186274804 -119.51611163176068 6.069068683454216 0.44696352400888234
38.51132296451365 -119.51821036720503 6.614763199729273 0.03810540638975273
38.51111543442816 -119.51612225656874 7.62704555253369 0.037539688799659084
38.513692145122455 -119.5177815383585 6.2351996609903795 0.3037079772111141
38.51753937717369 -119.51553499661594 6.193861666665577 0.20545224781509352
38.51874297438055 -119.51696156484489 6.127490751514832 0.16825824408129442
38.52198945118654 -119.51542911009004 5.869521830658084 0.13225847728042137
38.5239467830827 -119.51679721814456 6.105326162428008 0.06610230176952277
38.483699969519904 -119.51254207292077 5.878775339287882 0.13352272739590645
38.48396493068094 -119.51314900560777 5.95773530007826 0.2904613451288209
38.484649215201486 -119.51381170781345 6.544721863117759 0.06321331159998356
38.48660271835493 -119.51354294883868 5.2932261925636945 0.0546100885388115
38.48659105573156 -119.51480450514156 6.089338608497535 0.45279541030522663
38.487020848139586 -119.51412256548569 6.41104193381204 0.2611286072053781
38.48899449364903 -119.51269004039014 5.362066072837138 0.13796461430611792
38.4885368995738 -119.51530037421033 6.099709704293107 0.6066359545746601
38.48841925737542 -119.51446141164787 6.342662420315316 0.42793145795730975
38.49213798803833 -119.51484754716164 5.545302531822958 0.2086770851589639
38.4921033839174 -119.51468008756558 5.780624932767292 0.7330431671768135
38.49249238855534 -119.51401789895083 6.490655671795376 0.5888805240927613
38.49282731240469 -119.51347242848253 7.000206765874369 0.13730620867244409
38.49341711741719 -119.51457305412754 5.440874397029051 0.2461950496439517
38.49332078040952 -119.51345971267483 6.1370490682423275 0.8586888499778536
38.49377333959616 -119.51480240765156 6.34765468822719 0.7431262168414922
38.49393951252264 -119.51302967226313 6.8251955910810755 0.3003640585281962
38.49549138906757 -119.5134979472481 5.347659528467542 0.226845550365891
38.497058025951496 -119.5132032091178 5.939835376902833 0.9606664238085524
38.495582172553966 -119.5137461431874 6.611768629120777 0.8701553553010332
38.49519379836068 -119.51341450392023 6.854381694888433 0.4312604089107792
38.498082943865576 -119.51338345578019 5.720953898032744 0.16226639765215123
38.49847872481923 -119.51372644806547 5.97499248809102 0.9859440354167707
38.49792886442492 -119.51333636601059 6.416437889117597 0.9471542863715194
38.4989647295992 -119.51328872873486 7.229250534443984 0.5237177742508708
38.50046883297859 -119.5147722881419 5.3543415406388135 0.04891502651078061
38.50035959229667 -119.51281163750181 6.156534031540148 0.9432929012869884
38.50099641480394 -119.51504184801648 6.488340326112024 0.9650091880244995
38.50003210733789 -119.51343355888164 7.153434807492577 0.583932312007504
38.502017616845215 -119.51426241518747 5.794317330261638 0.8723894171728782
38.50328014319589 -119.51337928167067 6.250752675456997 0.9602828374230512
38.50249793169497 -119.51496252589303 7.163009222396039 0.6384737077809334
38.50507705036635 -119.51249093216852 6.078034321226997 0.7840196628908019
38.504738436180666 -119.51314289935034 6.393019891896628 0.9363678948809854
38.505264568997276 -119.51327080520937 6.7670531630687645 0.6792802479930216
38.50761504327242 -119.51515118154093 6.1573459955727525 0.63008042988335
38.507865554430865 -119.51384066080747 6.5736025629680706 0.8671467621845667
38.50700475182997 -119.51315332373022 7.12981593854709 0.692577234159383
38.5066971486713 -119.51467644579219 7.389330186859155 0.08060634492331702
38.50934778791883 -119.51255728934416 6.089074619621401 0.43826076054693264
38.509542039256786 -119.5151713756275 6.716106105082935 0.758069749686169
38.50977954929396 -119.51259014956808 7.115040623206444 0.6620761039916959
38.50880598238068 -119.51475129626358 7.306246402529412 0.19859682827480798
38.51278515073471 -119.51257385679985 6.0797171551372475 0.24862928963082917
38.512457869626836 -119.51514978105689 6.711262793299205 0.6570983035366317
38.511744983536985 -119.51405332224768 6.845762257322722 0.562167248705637
38.51262217801178 -119.51455799452741 7.327311914641351 0.28953254622839336
38.51458580810131 -119.51263691081127 5.751425723339717 0.07481090327170437
38.515276737350135 -119.51334770762739 6.436615914269721 0.5345334148795801
38.51513174784023 -119.51497698950239 7.205257848639386 0.3871847219850088
38.51325791930192 -119.51521397340173 7.487524847242462 0.31385560918749117
38.517492411726714 -119.51491409554633 6.45407157584967 0.38705696955218155
38.51545680137654 -119.51347224798214 7.09007854097959 0.1804110222111268
38.51650711116529 -119.51475788365549 7.46730727787597 0.2509906081060077
38.517697734623646 -119.51424516426071 6.478506022372002 0.30406008256171274
38.518753884009655 -119.51349433172751 7.293211760985322 0.11296804217353251
38.52022971126506 -119.51376778401759 6.597634068908659 0.27362024918363853
38.524240723724425 -119.51508963276319 6.595050637620532 0.221796729839854
38.52531311029583 -119.51305907061453 6.426550429565184 0.14600813952952388
38.52883313325508 -119.51439254331487 6.331091438744072 0.06626740021510905
38.53876057200381 -119.51316462134348 6.751176818236853 0.08324773886095006
38.54074836097527 -119.5147760757475 7.036967705951571 0.17080565455332344
38.54228312489688 -119.51327634679335 7.568566536842595 0.05150358056741824
38.543469677397525 -119.51434613950003 7.131937223780943 0.20094072837642027
38.54425051676454 -119.51393840455965 7.555432553595225 0.0939217880687422
38.544821247962076 -119.51502186832228 7.019421744000697 0.1709484990582075
38.54547757608345 -119.51482039378425 7.58694435337531 0.10713524185563171
38.547794619104565 -119.51490356533523 6.76039982703517 0.1516090450075067
38.54734580676914 -119.51296877593965 7.606013491368909 0.11566575223424055
38.551344901203734 -119.51411707333187 6.940217707928235 0.09380892849206482
38.47709001911297 -119.51056192662571 5.759811068882898 0.0427507359016526
38.47872708690511 -119.51132131905891 5.881986266962536 0.17502923124188324
38.48157101452652 -119.50974680391899 5.937875878143139 0.30732349299021594
38.48235539203129 -119.5111131106282 5.881660743730432 0.4332614422612389
38.48214170908082 -119.51061938375626 6.690520166907943 0.14255143872346046
38.484832374780424 -119.51192761764435 5.829446925865194 0.5490268901377643
38.4843575110844 -119.51179285001467 6.448924399285847 0.3696454672293803
38.48634410808516 -119.5108712269907 6.190664615114371 0.6794572150079601
38.48769187982451 -119.51097334799601 6.557840321429228 0.5734144553219265
38.48625226027219 -119.50998883383866 6.875574156515616 0.12341351473832517
38.48974747359281 -119.51076925568594 5.8053310560456 0.8029055225240584
38.48937024864041 -119.51147072280382 6.314824794467656 0.7534020180559189
38.48909262580664 -119.50963961532234 7.128012773874569 0.3418974763081469
38.49167031090325 -119.51022075159077 5.92401302036597 0.8956863974185348
38.490764540770925 -119.51068628525222 6.660986574754437 0.9183067672742403
38.49275382460772 -119.51091092520566 7.14147905101197 0.5422802353530243
38.49477752369524 -119.5122149478952 5.875235618015558 0.9563291366806467
38.49339945146794 -119.51010781260374 6.328333932751816 1.0718869339173052
38.493904186132085 -119.5105653593726 7.0835698490934815 0.7162427676235754
38.49352480087227 -119.51191768883727 7.71851474471307 0.016166663686052393
38.49658959955409 -119.51219638042713 5.953962259198156 0.9895301086696519
38.49646755331225 -119.51142762408439 6.260395882447678 1.1821770421940965
38.49672727880492 -119.51238410554413 7.043404706547538 0.8488185116258354
38.49520006356368 -119.51033692950347 7.506448339193191 0.1329052532598505
38.49956354357095 -119.50972317183003 5.925951901460002 0.9575003595287971
38.499388222212346 -119.51011396198508 6.552305244365136 1.2194396219831662
38.49955943372324 -119.51009965668479 6.96168740978189 0.925831322924885
38.498540583168584 -119.51146341096332 7.488442229639774 0.19372593871473542
38.500845042091434 -119.51041838076279 5.933044122435212 0.8625188324648283
38.50139342976365 -119.51014283924677 6.502387307890016 1.1843389593620257
38.500608762143735 -119.51053526714537 7.120664817330978 0.9499604034422325
38.50121982262013 -119.5100106835701 7.296354517200013 0.20420950270015986
38.502811317740104 -119.51009354769968 6.235029491828903 0.7370665556730454
38.502543729987 -119.51105797951591 6.520941020642411 1.1378334847069473
38.50199276162214 -119.51226060884731 6.975944305849098 0.9603539364153642
38.5028905430778 -119.50969395422588 7.637663362670178 0.1943862816631076
38.504742122188624 -119.51244832035476 5.912947251920365 0.5903277494863078
38.505489579546094 -119.51054732722744 6.534215521675085 1.0869003719727401
38.50430074293767 -119.51245504621323 7.034937511948364 0.9755204506524306
38.50425238906758 -119.51076089739512 7.40353164849247 0.20510382463197027
38.507310128802104 -119.51224602656447 6.078738093918444 0.39431215176959394
38.50753884742859 -119.51161943807419 6.2547292767823155 1.0116206079342764
38.5063914392952 -119.51184299736217 7.146975431712964 0.9703280461223402
38.50747411967617 -119.51092907156075 7.390475365343493 0.25584925009810816
38.50957274070748 -119.51089855571078 5.905070749923573 0.14360587940651284
38.51061648585216 -119.51087381400761 6.454720963982224 0.9293368377720839
38.51079571122514 -119.51102347205078 7.200265113107731 0.9547622182735881
38.51044691004295 -119.51182793796637 7.679998941030881 0.3418676407181307
38.51283245078596 -119.50962884986518 6.524525941516739 0.8566424590152264
38.51293037795657 -119.51119527038769 6.911222937237982 0.9177479645667445
38.511997928312624 -119.5102035233625 7.608556229460143 0.4593110951358981
38.51348622476101 -119.51242991215575 6.2785172959176725 0.7497610089373185
38.5151830996765 -119.51169785844381 6.775124946794158 0.8134447646792939
38.513988746279416 -119.5120167943809 7.381546470068135 0.5616861821376782
38.516365994536905 -119.51176139837644 6.3308577382867055 0.6001574249492198
38.516990142558335 -119.51174813840603 7.017019421168937 0.657285057939082
38.516060902491134 -119.51092617400911 7.612808176976649 0.5955224627029766
38.516851508839345 -119.5117530154417 7.994883077440412 0.0019711437928512958
38.51934126519627 -119.51136875188917 6.278711815826585 0.49452981964712783
38.518151095867424 -119.51078582192264 6.860565558542409 0.47492530303795516
38.51954804616409 -119.50989842692088 7.289636871458169 0.5462224580981349
38.51823809499879 -119.51149790414766 7.873993397187765 0.16274190371162262
38.520653723102576 -119.51168521397287 6.2609247234372605 0.4705006513627949
38.52197851094612 -119.50973940309689 6.899131794492008 0.3168444627138971
38.52170566173483 -119.51224146790142 7.331321255253184 0.4281377154311424
38.520058052638284 -119.51012739169312 7.816686084317912 0.23253040600680988
38.52215086671098 -119.51087458550167 6.367238007533211 0.44769097157373744
38.523818945205186 -119.51073681608237 6.890921185477226 0.22721438769108204
38.522187938951745 -119.51007906824563 7.291964597411361 0.28264267328653836
38.523949223450785 -119.51154265282963 7.843923395057394 0.21045870229422514
38.52586458506141 -119.50997913349849 6.580975782176674 0.40384648143020363
38.52621234595062 -119.51020373405457 7.236305337441821 0.22899252716641566
38.52447181833553 -119.50959868121957 7.291637516155308 0.17977025379461523
38.52623727511312 -119.5100584670914 8.064905244329893 0.1436477303479633
38.52797344812697 -119.51239316060057 6.451459555594566 0.3573784717450777
38.52769813111458 -119.51009368377166 7.214040083340553 0.24296897846828056
38.527789396317125 -119.51029814624347 7.707457695261193 0.15496414123242028
38.52754628731388 -119.51112108828438 7.911569071542474 0.0890274039938388
38.53084881477591 -119.5099716881293 6.492502103930623 0.2998841813194878
38.52957920554376 -119.5120032995245 7.013125959865351 0.25240876356313685
38.529667455582995 -119.51239740837008 7.411877054802047 0.19110659462550383
38.530022803185865 -119.51034006123837 7.761383137499314 0.07578993363409327
38.532440025697426 -119.5121389689597 6.375299043318858 0.22057585739749283
38.53164645432674 -119.51171294453543 6.7782114173892145 0.24594052794251248
38.53187126949643 -119.51086048897834 7.468759123570571 0.26232760567522023
38.53196263612025 -119.51227210491732 7.957301180584344 0.09701381704232767
38.533717843848805 -119.50986387946845 6.412187114915057 0.15099925485424648
38.533535698400826 -119.51204011683586 7.223323405679824 0.2866973180686946
38.53484712978014 -119.5105888695207 7.340814568585136 0.3298197716955346
38.53486448763097 -119.51105181652355 7.971389082644956 0.12162164272389911
38.53699606414508 -119.51143339823655 6.702908684472164 0.10626445458598287
38.537450858896065 -119.51012208354601 6.954071449705384 0.3025079871194248
38.53750542380667 -119.51017156792125 7.577605746594121 0.383637246067195
38.537234459764484 -119.51204732957709 7.902519685061128 0.12635214217961196
38.539146319034714 -119.51015733338272 6.523653679815043 0.062435039167576964
38.539869920110974 -119.51071369231114 6.753355419994806 0.29456761528680847
38.53979820693827 -119.51054351675296 7.358870941151267 0.39528682039140306
38.538252812070276 -119.51232712518042 8.18464442760758 0.10705691050631992
38.541512718751314 -119.51017539303515 6.316267987754027 0.014430612371818353
38.541057637675294 -119.51088243477913 6.837153557627595 0.28912828834371096
38.54059296918682 -119.51168893842856 7.441361993943197 0.39040550834829424
38.541618563876405 -119.51066993995529 7.993593817248555 0.06189959747418931
38.54249051270623 -119.51027752820633 7.044146510181666 0.27356148629399696
38.54240545915812 -119.51073816276406 7.737070850925956 0.36525737653171386
38.54635217253899 -119.51188477257955 7.125612709347481 0.21477053876854613
38.545496264828806 -119.51220580767414 7.33879002757745 0.33190560619829773
38.54776202010892 -119.51009775047068 6.825583321701789 0.16935745467927732
38.548524609901094 -119.51001027018742 7.422499541430083 0.2988414128268983
38.55086355492616 -119.5099372240264 6.811188568680999 0.1233992165399857
38.5523706147586 -119.5121788224616 7.217782922356903 0.05411396375421178
38.47300676996369 -119.50780340855846 6.05741138323437 0.03023050260375175
38.47630003666273 -119.50838147775914 6.020669332098413 0.16462290898449042
38.47689535448054 -119.50860704915213 6.374129620988716 0.08247095580472054
38.47838783312457 -119.50694252462878 5.962347576670685 0.2913446536702783
38.477705523211 -119.50835617189735 6.348719332904116 0.21140378592968506
38.48110389856191 -119.5090354905828 6.065058545585493 0.411705777231812
38.48034639068488 -119.5090169783152 6.5664269911501245 0.36444857984130996
38.48283352075695 -119.50823172284385 5.775193833968018 0.5335636632098266
38.48233599103535 -119.50683444810781 6.557662501471627 0.5351652953513821
38.4818115229797 -119.50685236751825 6.975015922205321 0.15489396098539795
38.484804812321855 -119.50942012117139 5.824035562377154 0.6321388525687686
38.48411369719557 -119.50835527828104 6.710013712553127 0.7083078389381299
38.484940390002436 -119.50737218603807 6.931896674273049 0.34723104340239147
38.48701390188096 -119.5087797804508 5.765826627687425 0.7133619929362053
38.486619236169496 -119.50720583749643 6.463579155614138 0.8957956151960784
38.48802280279221 -119.50671126504318 6.915562058048538 0.5425711382646465
38.490184237579335 -119.50903810629966 5.961213171236595 0.7797075469678546
38.48918525135269 -119.5070633232401 6.587907254080197 1.064684575451972
38.488573453351385 -119.50917398826927 7.236683698274329 0.7380349317949014
38.49047517839507 -119.50900320227032 7.276212972210383 0.09644702574903866
38.49155485961215 -119.50805017732918 6.208893634373067 0.8290957556913807
38.49186321453192 -119.50808813281269 6.699872848884914 1.1800192172566666
38.491510207964026 -119.50879063626698 6.7678631299379814 0.9320159483557594
38.49116653623666 -119.50714160607725 7.342593843352338 0.2926070593717724
38.49450742991856 -119.50838140722183 6.139072981824498 0.8433575228913807
38.49337835338348 -119.50936809302306 6.328439279898857 1.277617324220762
38.49416042744044 -119.50795437040051 6.852579318587765 1.1078335701620325
38.49459955829645 -119.50702163845955 7.253382880305797 0.46477498743017964
38.495782438946996 -119.50820969440548 6.241535769393059 0.8336149710903042
38.49549012684553 -119.50755752056078 6.424408266126302 1.3570590528581221
38.49641453159858 -119.50930874213262 7.170847974667771 1.2469703791030555
38.49665159565382 -119.50913207426402 7.62604849453726 0.5988832186364745
38.498552148240215 -119.50920507730075 5.814606338330266 0.7847605951564272
38.49781657680133 -119.50783583287954 6.724411569442349 1.3593540601291254
38.497435569032305 -119.50681662102875 7.2282062481575595 1.3338523958374295
38.497647843231476 -119.50910462741197 7.371309719136118 0.6852739785862939
38.50063597739797 -119.50673431235195 6.1281813323010885 0.6873345501827255
38.50185734740966 -119.50744858570467 6.401044307928404 1.2866374979973771
38.49983582808992 -119.50865523815095 6.883486050562921 1.3608153528415625
38.50115843737277 -119.50711834891271 7.59791858904218 0.7230236176083248
38.50230821890151 -119.50729225056251 5.769168762369889 0.5592976512811573
38.50246707679484 -119.5085429628722 6.2798111280064575 1.2243900636629046
38.502284727524774 -119.50896028014449 6.787737541086772 1.3438097649759644
38.5037930868162 -119.50848655977958 7.718201967932721 0.7267466367156175
38.504217364889925 -119.50923624196092 5.876869199863914 0.3948302155564853
38.50515293617422 -119.50776140748309 6.495473618929392 1.155449258455034
38.50557449107768 -119.50691880918262 6.949176368727915 1.3147196730332475
38.505844574462756 -119.50769269548654 7.460387888201262 0.7216043086652618
38.50743152109957 -119.5081419050799 5.784502332305254 0.18750258153122737
38.506569870272614 -119.50796006616319 6.678941683237541 1.0358364813136798
38.50693692828687 -119.5094444680584 6.844962175722337 1.28293339228469
38.50754708453979 -119.50910788448556 7.647954258496677 0.725548111437806
38.509539489410976 -119.50685104966657 6.609052248401723 0.92062913708481
38.51086213215293 -119.50920630046393 6.816357121914881 1.248460337154158
38.510408857666036 -119.50675304599488 7.602828894375547 0.7469608651509982
38.511393409571056 -119.50896030848484 6.420101154971752 0.8329073467518624
38.51273869882729 -119.50894956392305 7.132866247886826 1.2117415551224417
38.5115603355629 -119.50952896732925 7.418082496295426 0.8027337472531086
38.513973315822334 -119.50800979655479 6.300735626511013 0.7225754814544679
38.51351635676813 -119.50869032629787 7.095107501588195 1.1319957004872634
38.515205227937614 -119.50816614317681 7.702189402962911 0.9060960139926365
38.51452515140174 -119.50850711382664 7.874279422609672 0.06725267007014972
38.5162388424406 -119.50693620019517 6.424996296996472 0.6107660575242136
38.516132451046964 -119.50794395775395 7.120243346216943 1.0310080436597464
38.515514676440425 -119.50683667227267 7.341461087436414 1.001435686365301
38.517598195020916 -119.50777487359447 7.799933301893747 0.2675194351676231
38.519241204871406 -119.50785173472275 6.6914499660816285 0.530389786695298
38.51898876028534 -119.50834736920258 6.856849905424196 0.928357760814225
38.51889003011912 -119.50753451902573 7.540270221414756 1.0060913307095363
38.51862676421701 -119.50951328573825 7.793872010409863 0.4598276756184899
38.521835173551416 -119.50880253976457 6.2876592979868695 0.49307121068994186
38.52073953367183 -119.50734208520443 7.06544038283537 0.7996963351390857
38.521268861013006 -119.50689933254135 7.64718007721508 0.9093276276655741
38.520502067060434 -119.5084630329346 8.228943080525214 0.5857425724317767
38.52264098482986 -119.50834726012963 6.514791092089495 0.46174907940341
38.52414350382847 -119.50840777040166 7.219599807923092 0.6479355327946885
38.5243618077796 -119.50766453207473 7.417411228840857 0.7620459982662797
38.522945667376895 -119.50884338938772 7.817679210702074 0.6185839836014473
38.52480096632119 -119.50724202586747 6.596938583192918 0.4126443391149986
38.524731791598576 -119.50901983568292 6.791031888925566 0.5756576980283125
38.52638434497732 -119.50817127086842 7.6261502935448835 0.6240374281274391
38.52620773569531 -119.50728950450554 8.144732994613364 0.5874213128025597
38.52877808372098 -119.50794206030042 6.4684610055310365 0.34859799973589006
38.52869574813772 -119.5069814882665 6.896978561877801 0.537109793402572
38.527393693044324 -119.50831065469018 7.304388464817386 0.5661641239978721
38.52685320996816 -119.50823425043333 7.755063131537705 0.552731402877104
38.531131287972805 -119.5079311762243 6.392207534853936 0.2855459745133324
38.530621220476945 -119.50910422960376 7.156178745820298 0.464420032259854
38.53077869040497 -119.50867551137159 7.5749252179671345 0.5844837910945261
38.52959883165962 -119.50824712832103 7.860071130680606 0.5534957605588722
38.53167011284131 -119.50783230421233 6.59175141381312 0.2247974063587072
38.532119229334796 -119.50950771158219 6.807101507040985 0.37624998796388126
38.53290904784716 -119.50753766447976 7.6064152006159675 0.6474080154055615
38.53114586534351 -119.50844348627679 8.138347091617131 0.5854406686778171
38.53541711218177 -119.50883906233543 6.679846376150937 0.15587393859278767
38.53552018836762 -119.5077430287842 7.161972636689896 0.3398476708000068
38.53447789829716 -119.50848316678245 7.476281820516404 0.6756300020592279
38.534120240139075 -119.50952225360815 8.247159477822192 0.6122983537793664
38.537741948589144 -119.50698317374808 6.656410014321795 0.09515443182549385
38.53660769825835 -119.50929659145436 6.796896066185206 0.32021777582511557
38.5362503419702 -119.50807667589366 7.707151479308296 0.654025795549617
38.53611369670075 -119.50760632540621 8.159561203935946 0.5935682954171001
38.53902085526623 -119.50802776975202 6.328450889404578 0.03649036715171343
38.53943196150849 -119.50747342328759 6.809716610275251 0.2889734242161087
38.53886002704327 -119.50909491212553 7.588458668127724 0.6032997559399362
38.540033753942474 -119.5075030990132 7.753449070756118 0.514842457573086
38.5402275026446 -119.50945335871762 6.767749721377451 0.255963602277358
38.54208548563662 -119.50789477733245 7.274824054689189 0.5359464574636905
38.5409309293399 -119.50810979570828 8.15297613433892 0.39759869213541654
38.54289188094311 -119.50749116830296 7.0341630971061395 0.20424156171246913
38.54253803076522 -119.50913353523974 7.545713940987661 0.45757780739169385
38.54322592492437 -119.50843751722184 7.892570297773533 0.2922600373015393
38.545878061702005 -119.50791119658487 6.763703396072308 0.11049893144631424
38.54522378160649 -119.50719228651829 7.276077649716047 0.3879358256991789
38.548849427034014 -119.50739991249525 6.8402399723142295 0.029645231361696417
38.547624388907096 -119.50858699754772 7.727626445334925 0.3322560717260391
38.47240842342203 -119.50661884471586 6.606089964846971 0.09864818990842375
38.470546678752406 -119.50416916525036 7.181979788425886 0.06933408535033182
38.473187413128734 -119.50652308985548 6.736749921568977 0.27422302149976535
38.47407422166551 -119.50442960747066 7.11471403246795 0.17073949155374396
38.47602240884328 -119.50614072018575 6.078120055703351 0.07958538067828262
38.4750531185895 -119.5050448208747 6.6203398443217765 0.4511490704313179
38.47569128095933 -119.50568380030427 7.187835619026176 0.2839570867052448
38.47727491572445 -119.50624229929946 6.063543893284254 0.21093318219688165
38.478443382202215 -119.50403630582264 6.284389277564869 0.6181231341071632
38.47908139614219 -119.50434732120966 6.922541569213769 0.40796242091540896
38.48070855337329 -119.50605388706842 5.999862046158022 0.3215990651848618
38.479543787747815 -119.50652102813883 6.2717637768796966 0.7689156203714193
38.479470410771626 -119.50620537457549 6.959625818845616 0.5411505937500579
38.480277789309014 -119.50442166958213 7.525877588464142 0.007342571465797638
38.483622620598204 -119.50512083408037 6.055346339257176 0.41070592288865015
38.483543775566304 -119.5058013127205 6.569516109210782 0.8993450660590178
38.48292367630878 -119.50576319662898 6.91381799519887 0.6797561040985827
38.481788075831446 -119.50398297193685 7.290159852622262 0.11148653632733077
38.48495960460043 -119.50524089868149 6.115113873889048 0.47167784028658144
38.48588531615798 -119.50574382055669 6.673184023965549 1.0058103811656318
38.48581354080669 -119.50650074141767 6.952748018589148 0.8200674093935142
38.484669668080954 -119.50590282986826 7.583016747900204 0.23857273261620598
38.48733862589794 -119.50660360221032 5.764419038805025 0.5168954093684529
38.48652910507419 -119.50475781374041 6.662288737592818 1.107816690358495
38.487236163497066 -119.5057475426272 7.157276453926786 0.9625966490005715
38.486567556121905 -119.50427773774646 7.359236198187665 0.3882714091726363
38.48881325963479 -119.50450152322229 5.759231434057923 0.545890334949535
38.4901254368959 -119.50549873099885 6.495027763997329 1.1954796820508515
38.488619493455374 -119.50471372101505 6.846119551124626 1.1110818312561848
38.489729449068705 -119.50622290409291 7.692853617572505 0.558296707282189
38.49105557829127 -119.50519382205924 6.190727573673465 0.5624060022246146
38.490740100526054 -119.50508337276855 6.4968476753984135 1.2667375658386462
38.49195126340653 -119.50479114580607 7.09472643645765 1.2688191374045594
38.491551565409374 -119.50478023662504 7.39432484327347 0.7378580946908504
38.49399323580517 -119.50666024000621 6.035096991275871 0.5522997656575955
38.495097637750646 -119.50505752653352 6.397650904873632 1.3271323317859502
38.4932717019526 -119.50566715110848 7.2256123079993175 1.4240345883292331
38.49377957996793 -119.50512063535776 7.367049344545699 0.909781222436211
38.494060355823756 -119.50427991279142 8.032115371594513 0.035061479421743494
38.49667258088341 -119.50384552471172 5.803890794167 0.5194289737051644
38.49560481109746 -119.50477068000093 6.3740479070066725 1.3668884208383711
38.496804346179836 -119.50575473123665 6.960231655619216 1.5536783134573549
38.496202016975616 -119.50580187364827 7.744903138963256 1.0596441755613462
38.496967884526086 -119.50438544353568 8.022869465405142 0.15312266617037765
38.49904077651525 -119.50485113863488 5.950335023306415 0.45719749444433117
38.498227774774534 -119.50652298690412 6.271669962110155 1.3353477236552744
38.49960977302535 -119.50436823643567 6.812724734284905 1.6439116059348395
38.49879265427806 -119.50496921749995 7.446309663775358 1.1801976832471464
38.49751801765311 -119.5051746794145 8.142920578825892 0.23548872016202355
38.50099186725265 -119.50451716406592 5.93067564762387 0.364947306655933
38.50107931974707 -119.50529755905146 6.608615592554541 1.2416162409116231
38.500338580409945 -119.50499164417631 6.786285841507608 1.6839921964924673
38.499937576521276 -119.50419693861363 7.269626685552911 1.2693183139450608
38.499822514075596 -119.50409200665277 8.18373274863013 0.2858067583929343
38.50224017363981 -119.50669464377908 5.80028917567336 0.26298802385174186
38.50300342682969 -119.50601571981106 6.6464304603282525 1.1375783204565502
38.5037542262644 -119.50462145310783 6.916570789584923 1.6799589368477843
38.5024844413573 -119.50399924675057 7.410252428264006 1.328150793256881
38.50381769648921 -119.5051189532966 7.977993694161849 0.3148456436616848
38.50581100323538 -119.50613053622278 6.243763638514075 0.1434585518551602
38.50551404125527 -119.50651128537356 6.256378134702279 1.029890177134495
38.504647181656324 -119.50434875092304 7.02301934636522 1.6531023304516557
38.50433395467899 -119.5056108943679 7.7429066053433395 1.3601639811548893
38.50417534855363 -119.50452844608878 8.07662204496717 0.3382107999584442
38.50703338601567 -119.50555299321238 6.273108461074932 0.8904018654742966
38.50859825930342 -119.50438709768711 7.249060357969463 1.6063116172085428
38.50836153494644 -119.50492139869152 7.566197483380525 1.3698515616610412
38.507262267780234 -119.50563092359371 7.902444589709171 0.364294794777642
38.510776539976256 -119.50639224452735 6.444168103070173 0.7808299620086933
38.51008910454185 -119.50596001475982 6.956329017801196 1.5289227632667757
38.5097541830267 -119.50412239838897 7.652813962606945 1.3654320987049444
38.509844880443126 -119.50591265924665 8.21352739022015 0.403051445266201
38.51105468873398 -119.50614682680894 6.631971337748043 0.7127294631138829
38.51274863364227 -119.50523290124096 6.867096405824855 1.4492897457726992
38.51173575632507 -119.50491550340111 7.514901396189665 1.3636556768330457
38.51151478743351 -119.50583927697929 8.138102713437357 0.46795129246533157
38.514972795389454 -119.50557837142377 6.4491089658642755 0.6043724674466602
38.5148312866082 -119.50652927205665 6.842345163083756 1.3554794144092588
38.514995628509546 -119.50391608072594 7.511658671959232 1.3831790323226403
38.515160256543325 -119.50391097244945 8.192614593472024 0.5683834384731071
38.517259899718454 -119.50641889241922 6.426209856072192 0.47165559669446444
38.51672389872877 -119.50611667915354 6.778252357980398 1.2440063351277646
38.517112753888135 -119.50464348832018 7.385202761879449 1.411468948974084
38.51590796485823 -119.50464091463779 7.857751559563766 0.7050069063077324
38.51778392582698 -119.50610326809561 6.570465451989688 0.38394217445504386
38.5187208682683 -119.50554611062583 7.087267455286472 1.1481371246243832
