> GMT_LATLONDEPTH
> out/cube/20240710A_MSMS/PointSource/FF_4days
38.46935204706097 -119.46817731875511 5.541082965564374 -0.8012688977732009
38.46835841903885 -119.46718984225501 6.0387626782740895 -0.6146051244638386
38.472037707941126 -119.46648739402279 3.257597874559162 -0.7553638664965803
38.47249946536146 -119.46739633763355 3.9569684559909843 -0.9841299438400668
38.472460460162296 -119.46742477895434 4.293316064317345 -1.084899948376891
38.47077384652774 -119.46733599038468 5.204590146822598 -1.0404770099164315
38.47150761752763 -119.4688259125058 5.605448078105353 -0.9137410222803393
38.47242715614927 -119.46860703638382 6.1923851172229964 -0.6900238742449613
38.471144435800625 -119.46815404546724 6.324077324955674 -0.22032355416402846
38.47296973654834 -119.4673855469764 2.968039970667142 -0.4700512533695362
38.47398007345042 -119.46749272982254 3.562823048466401 -0.7915375036508456
38.47294202021357 -119.46907607854413 4.030640852250298 -1.0518040146995848
38.47482765499389 -119.46883865633573 4.385115091105565 -1.1850811281100637
38.473962085869516 -119.46661866045378 5.191920524038752 -1.1634225464345223
38.4747020559017 -119.46826353549348 5.419920517802395 -1.02417151527603
38.474803092028345 -119.46886687065985 6.006414033029565 -0.7565484799730195
38.473775057334194 -119.46768695710918 6.712757745349287 -0.28191161895668354
38.47497376712161 -119.4678130034775 2.947171659524593 -0.473591411442339
38.47573985900719 -119.46797753282519 3.5070799026288197 -0.8128005770809353
38.47534018023994 -119.46701371093694 4.095848417237599 -1.1043394346528652
38.47491316361724 -119.46909487437533 4.522585274728431 -1.2724113685685712
38.477004827707475 -119.46833111760901 4.875828235839133 -1.2777306200858156
38.47533022569815 -119.46823636157811 5.60656159375126 -1.1339420186422369
38.47649094033777 -119.46894816255994 5.9501603221798 -0.8339579269523375
38.47563639686335 -119.46875136909107 6.5528560487836325 -0.35625040196044877
38.477806070224254 -119.46902233601587 3.203758627915112 -0.46962861797686456
38.47826628959956 -119.46883634078304 3.7444018430343253 -0.8193533538492059
38.47916662566543 -119.46718114301409 3.831731192677544 -1.14047521922609
38.477387881374256 -119.46898479013076 4.391945860787216 -1.3439176532532344
38.4783216932393 -119.46746939320685 5.22159377229716 -1.3794429959999015
38.4782690514212 -119.46724653297586 5.680977878036841 -1.2407623545321234
38.47836787062797 -119.46684797170806 6.025727364383591 -0.9231105664287358
38.47773083290327 -119.46896624431842 6.74559015176358 -0.441206345382699
38.48011376880775 -119.46721336625808 3.197702429112443 -0.46285892885544627
38.4798312975601 -119.46823637769509 3.397592594763061 -0.8129640618411907
38.48087414680434 -119.46775793314681 3.9416300171515704 -1.1599284664878242
38.479744042324135 -119.46837304409449 4.6158930700712135 -1.3973664660752467
38.479883583574505 -119.4679569784506 4.792746633463612 -1.4650018456855025
38.48048924857636 -119.46759368759525 5.633331903372817 -1.3405321840108413
38.480434276417114 -119.46715181073463 5.881367498973724 -1.0186682226882373
38.48144957378449 -119.46835015722394 6.7131231826685385 -0.5337472448990103
38.48224777061441 -119.4689801645071 3.069168735163394 -0.45714412052677356
38.483405797148166 -119.46808126581422 3.4467016770680816 -0.7971471359045756
38.48247997992751 -119.46754033404919 4.198032497974544 -1.1636586025800708
38.48287078561666 -119.46846814988741 4.621499212438934 -1.4316759779179469
38.48267957924471 -119.4678996405553 4.786136607275745 -1.531969897444791
38.48159468668346 -119.46868287562376 5.628251938488454 -1.4292786549339755
38.48337485084693 -119.46645840357267 6.0619876881207615 -1.1147357354601
38.48194245775826 -119.46872514139949 6.3795205886108315 -0.630740636397752
38.48609293377847 -119.46712122437638 3.201775099159945 -0.44995170149401137
38.485032217487515 -119.46684212948894 3.6718425154719845 -0.7760859115724095
38.484039587060636 -119.46913793704344 3.811461540403544 -1.1538287138367662
38.48543735011654 -119.46773494090651 4.384178787706918 -1.4471420320445312
38.48565372323628 -119.46866550134484 4.779105395408086 -1.5794086315106215
38.48510087896642 -119.46655663447159 5.492344170910403 -1.5043986220713954
38.484996169082784 -119.46787320357915 5.840661515872354 -1.2068933796095944
38.48392600163929 -119.46742626123198 6.363126844274039 -0.7295631335364804
38.48807275559818 -119.46815707597742 3.022472732606786 -0.4319881967435969
38.48794866106508 -119.46892120984023 3.3323858176225647 -0.7522321173545279
38.48814154050544 -119.46690422483547 3.98217113411693 -1.1332041559754433
38.48640007315141 -119.46746834442536 4.584842890632123 -1.4453232235390276
38.48702350091524 -119.4682040525601 5.185238898295651 -1.6078375617827614
38.48751874378499 -119.46793085970766 5.396782950122833 -1.5649505041469824
38.48682243544047 -119.46716285462522 5.783029919669472 -1.2926178965178772
38.48795253315958 -119.4670459316934 6.45381022900674 -0.8283703477060935
38.48617633765646 -119.46815471903226 7.157986095103119 -0.2849050799054054
38.490053203896174 -119.46852128349099 2.9685106969045103 -0.3951333873279323
38.49004664218267 -119.46830410570004 3.527897834775983 -0.7247385755253845
38.490157630446944 -119.46750422220184 4.062717430374776 -1.1042605873928006
38.49017666764314 -119.46846544762379 4.5383816385461655 -1.4286207084899831
38.48883456767342 -119.46889808424221 4.756332384816915 -1.61890209935571
38.490256795656705 -119.46840753061407 5.337727611720727 -1.6114061635653785
38.48955662999556 -119.46775582913199 5.960898081110407 -1.3710176052349363
38.48912312353104 -119.46688362079348 6.71869750376605 -0.9261244327111324
38.49042941916026 -119.46693530365674 6.8602960260439225 -0.38073421746277414
38.49171486069326 -119.46860947363606 3.0595292021819667 -0.33927171381303534
38.49273990257746 -119.46876194709417 3.6010992981646344 -0.6906735163211556
38.49162068825299 -119.4673537290751 3.775905423710025 -1.068782687099902
38.49168807561282 -119.4670953856339 4.52776528292876 -1.3997828676583364
38.492163497619686 -119.46730483126403 5.207157604275039 -1.6149055539131187
38.491752611280994 -119.46814188578554 5.396868121768049 -1.6451945620040447
38.49236927371608 -119.46767401050292 6.2125041592049675 -1.4423621201944972
38.49110075927904 -119.46705951647478 6.375279106714403 -1.0224797108878039
38.49267116506835 -119.46758350362428 7.1766169148031675 -0.48007857758088013
38.49400603946468 -119.46643919493386 3.0341200371537282 -0.26972061877026837
38.49305534829706 -119.46789974630705 3.5190020935122526 -0.6477467320239552
38.49291488545414 -119.46710899426398 3.9407096679876443 -1.0283936812014776
38.493889253897 -119.46723571851555 4.5688408610243805 -1.3615995707278756
38.49313068271247 -119.46789830535434 5.168087799221984 -1.5983541820033489
38.493154978076156 -119.46798690116088 5.366224840143999 -1.6682003173495652
38.4949432054666 -119.46872803272576 6.015607200696965 -1.5075684424796394
38.494407342757924 -119.46690188283756 6.588685641441033 -1.1175550558399416
38.49347665362395 -119.46926472578348 6.864542108115192 -0.5824988492565997
38.49599468416339 -119.46732586539808 3.3225881582101255 -0.5959604439966665
38.49624507578031 -119.46670530002136 3.889782491265733 -0.985436785105854
38.495979957841406 -119.46729454001202 4.275428475401019 -1.316825723234389
38.49591234653863 -119.4679294723914 4.889046197744751 -1.571625590203701
38.49616502950591 -119.46707328461765 5.651775131034203 -1.6823141256659038
38.49586880405959 -119.46701859326339 5.946959769588238 -1.5677234665114768
38.49645749310473 -119.46871421588166 6.319511265406369 -1.2116462989621575
38.49533059238028 -119.46755247562406 7.031663727508782 -0.687511272483839
38.49911816517302 -119.46763698012833 3.7487633490638888 -0.5371732503769732
38.49905239274665 -119.46658172314189 4.042839816307523 -0.9427295638774866
38.49867328281776 -119.46704146984075 4.594735320239733 -1.26797002488663
38.49780660721784 -119.46672331388345 5.125010317144827 -1.5367861066526267
38.498806524291986 -119.46715598982308 5.527928368764818 -1.6891124571648302
38.49922806276102 -119.4669669456716 5.830710749148475 -1.6237418236217351
38.498011549821825 -119.46668612795496 6.3918615079781205 -1.304994323597828
38.49845465967876 -119.46792837843111 7.2184595824296425 -0.794534997311528
38.49747267508541 -119.46726393594592 7.437481645473983 -0.22313204229671227
38.50176651518443 -119.46686981176188 3.5728199961173486 -0.47299082029645756
38.500599716144514 -119.46927672972996 4.023458616472776 -0.9005493706244637
38.50174941555724 -119.4674404502482 4.519081231294716 -1.2163170496598876
38.49991898248321 -119.4669465240056 5.120850350359449 -1.4954816435225282
38.500674741326904 -119.46917859740253 5.697934351621388 -1.6897144390517553
38.501086309400485 -119.46883340582865 6.155986213164669 -1.6762455199624589
38.50053888975129 -119.46700097200443 6.341656652893949 -1.3977198214256874
38.50135941050567 -119.46700854143958 6.848229992222105 -0.9028921219437451
38.50104906734074 -119.46924754171096 7.619835138483468 -0.3243466079523347
38.5039235176611 -119.46707156301873 3.404556121777048 -0.4028637827334781
38.50389934818912 -119.46902793021484 3.758466766571592 -0.8522707116006417
38.502910775531554 -119.46794356450222 4.573110579306036 -1.1603413722363294
38.503735803680016 -119.46849918785128 4.979870152957115 -1.4487919406191538
38.50317464087315 -119.46791586282998 5.27476002705487 -1.6848059322574378
38.502748111801466 -119.46779372172696 6.204181295634 -1.7256531426194106
38.50396315997632 -119.46896577085082 6.745609906916076 -1.4899183940774514
38.50361150769554 -119.46825037849223 7.16890205123622 -1.0118863933831894
38.502147835170675 -119.4692176582043 7.744040082256839 -0.4274231139212309
38.50532495348824 -119.46911612847212 3.287920087518044 -0.3256006265140057
38.50531464096019 -119.46752579494489 3.8271627566134776 -0.7869360718437992
38.50476696923421 -119.46864894028155 4.6140944064276805 -1.0959277069376623
38.50421914876831 -119.46840871886097 5.220975312773442 -1.3970624784288024
38.504964604614436 -119.46731966334393 5.579325699123393 -1.6747458772836379
38.50584451535474 -119.46743487148859 6.121751958699385 -1.7723092061662213
38.50470035885015 -119.46844801985087 6.309587239329729 -1.5817210394198875
38.50562317416048 -119.46643328384862 6.775459620001739 -1.1208473202857363
38.50474363354416 -119.46763960719669 7.582801816301976 -0.5306110330923424
38.50759623265882 -119.46661047168097 3.5252728631290884 -0.24347317075694253
38.50766643660681 -119.46789441789181 3.883180117663748 -0.7006904967702519
38.50831722882119 -119.46902603543387 4.38607506950554 -1.0200819432732142
38.50805620475419 -119.4689262048904 4.934500484086334 -1.3399096869605807
38.50848029171516 -119.46779300913268 5.283032626003198 -1.6596243222179687
38.50680371077328 -119.46808997951888 5.85318823383533 -1.8163698818923475
38.50792692106595 -119.46685022646851 6.719287190000099 -1.672972472472521
38.506442201960986 -119.46840343901931 6.941876952432967 -1.2289146901663381
38.50748328685214 -119.46886531279293 7.689632360635616 -0.6324359625560917
38.50863155441338 -119.46727026210651 4.136918199535965 -0.6015688185541759
38.51076913661583 -119.46849747095617 4.594998801144804 -0.9338699786348524
38.50940791710884 -119.46913239986684 5.249490454619203 -1.2765319776020454
38.510116878135584 -119.46676706623415 5.612974700206645 -1.6391863886963853
38.51059364828337 -119.46734508095557 6.004387834039193 -1.8572349134726909
38.50984123959825 -119.46851241346754 6.625965767141557 -1.7622318888913133
38.509968161015294 -119.46677728636257 7.1740002157563545 -1.334383652163906
38.50921420792163 -119.46720696919846 7.727337060184107 -0.7315508771090131
38.511253717050415 -119.46776486695997 3.9913231584977176 -0.5013045566118532
38.51183707825217 -119.46660744487352 4.505839470381429 -0.840788846608501
38.51165924407541 -119.46682146852875 4.8587776039262325 -1.2062018279001685
38.51265610173138 -119.46814228609196 5.33002739335452 -1.6126450714081273
38.5111115609773 -119.46898194296448 5.773161806676322 -1.892684370495306
38.51148141342014 -119.46905325258201 6.342872250951231 -1.8453220728518958
38.51238299495855 -119.46691732725147 7.207565942413926 -1.4337749776311663
38.512942072875354 -119.46684020495955 7.3810636623770245 -0.8263132395911221
38.514406035705505 -119.46842727572574 3.901305890485533 -0.4070508804209283
38.5148481010024 -119.46766169916151 4.544257124167713 -0.7442922909562376
38.51466217470635 -119.46871631858325 4.869948903999024 -1.1286877170161775
38.51356811662067 -119.46831689857571 5.451645221803492 -1.578430287133811
38.514807400813005 -119.46909672057893 5.929920458542278 -1.9183612677716162
38.51344137501028 -119.46906115278549 6.311626077622063 -1.91469256472101
38.515181175510506 -119.46680734271958 7.169173394936578 -1.5214126277313782
38.51329928275206 -119.46805377272388 7.4002116530358215 -0.9142990124174641
38.51709954778623 -119.46691333279108 3.7647932841147704 -0.32228031421132297
38.51758361840518 -119.46823739201524 4.54388266306482 -0.6476772284250552
38.51752524614719 -119.46728738921433 5.007618637109489 -1.0444023292709272
38.516380252839234 -119.46781287369113 5.591784685491114 -1.533842919117368
38.51700522526561 -119.46818217474275 5.8731862372405645 -1.9280691965757342
38.516564718295456 -119.46733995880861 6.529407823307305 -1.9611755605794012
38.515486777858946 -119.46906484041169 6.9531302764922875 -1.5904851805732914
38.51912114544246 -119.46784176303042 3.810662085659546 -0.249162090898914
38.518369482540734 -119.46685202982862 4.634983152475745 -0.5542382612502894
38.5186571340278 -119.4690667121689 4.918021817276879 -0.9543065504678044
38.517716090635055 -119.46696686477222 5.253494295675821 -1.4747881868345216
38.51984978329122 -119.4684338272876 6.058825448608603 -1.9142305067779806
38.51891504318564 -119.46816984837626 6.6880408951224775 -1.9773408423149497
38.5190915379832 -119.46876260581939 6.892580855618057 -1.63529618361377
38.52094377476753 -119.46875047126402 4.270334283549033 -0.46625085353547485
38.52065602020821 -119.46697495007737 4.755710130710739 -0.8598245073969062
38.52028645959516 -119.46757958145722 5.389670947930971 -1.396585955807041
38.520823863906834 -119.4669713773226 6.109438468032634 -1.8682505620051904
38.52169376357173 -119.46671959312732 6.724002538464383 -1.9590818363949314
38.51991964136377 -119.46788936758587 7.1119846655425825 -1.6527053952352968
38.522966159079765 -119.46736651160218 4.689371135757854 -0.3837841222190616
38.52321129590819 -119.46770598076627 5.158383131700606 -0.7627933312656496
38.52297249465264 -119.4685999994776 5.341521402915269 -1.2969557737695896
38.52413573949702 -119.46656481915015 6.210104073949249 -1.7835727619724866
38.522337953679205 -119.4691753587316 6.499539559886735 -1.90492224399649
38.52252016309719 -119.46755320644718 6.960833859383673 -1.6416389012730515
38.52656601656416 -119.46814849024763 4.366831716555181 -0.30437868434933457
38.52600389215887 -119.46784788186801 4.808962244108301 -0.665046777030826
38.524459469290626 -119.46923370005713 5.2851829246160875 -1.179324797768172
38.525001349995186 -119.46796527226536 5.792429533276339 -1.661964778286443
38.52527987167744 -119.46913621801974 6.568741387083076 -1.816289826327119
38.526255487848054 -119.46764387674006 6.886453496340508 -1.6021721898855927
38.52880129028397 -119.46858565591123 4.273047904440686 -0.22384835281858895
38.52745602662713 -119.46798112899994 5.095762382569623 -0.5675518577366561
38.52765364429023 -119.4666845521407 5.586001479971199 -1.0520079902321968
38.52853634254252 -119.46654422702336 5.911479134440192 -1.5152921215591735
38.52804918471602 -119.46897950667513 6.590751795464922 -1.6987242966839766
38.530904166443335 -119.46904209074583 4.867705795210961 -0.46987632806194757
38.529174300740124 -119.46779394111933 5.277304025831163 -0.9232497886498139
38.53017999114245 -119.4666968309445 5.994648440895243 -1.3586540587797644
38.53088700069196 -119.46645669761811 6.382007424736645 -1.561070364790328
38.531435058299024 -119.46681113701241 4.854074614625737 -0.37069101333480814
38.531293001911095 -119.46916016940976 5.695105080119161 -0.7975504461144747
38.53126208932646 -119.46877165228017 6.18943624338121 -1.2029665132291285
38.531191652091344 -119.46862185419955 6.50427911979615 -1.412886269691291
38.534001809256004 -119.46771786658772 5.142629438380409 -0.2689595559651493
38.53392564178655 -119.46745967280633 5.377390140796968 -0.6759017996955915
38.534154492728646 -119.46710898762076 5.8957397568934455 -1.053453275772731
38.53353489595294 -119.46661354262925 6.686779073195953 -1.2621562708316718
38.53745252660784 -119.46916067367879 5.4625906466157526 -0.5577711400743754
38.53574886236695 -119.46802182734274 5.900563925929893 -0.9116500509391152
38.53667269635295 -119.46827709546534 6.2693546672949285 -1.1141845018060494
38.53900813359498 -119.46855662402325 5.519301930337362 -0.44263494878426163
38.53991574565177 -119.46881727639106 5.858989233594081 -0.7774549467970632
38.540720251503636 -119.46725353977763 5.60179231231372 -0.33062949219639126
38.541012178821546 -119.46676242285534 6.0665929114344115 -0.6503755948758934
38.543017410299164 -119.46927727025907 5.292500138148495 -0.22258488579244667
38.54289620791954 -119.46758371524145 5.883399170144919 -0.5301104349757427
38.54488082070006 -119.46675287828451 6.137878320335137 -0.41661894977139613
38.548869536403 -119.46868013633139 5.935696264017519 -0.30984370156689983
38.45572361128379 -119.465929772019 4.451725096915296 -0.29822748468816607
38.45617092011671 -119.46366668450652 5.200362143494802 -0.2389889906979872
38.458931049687344 -119.46584103413198 4.2018404075312725 -0.3978333696612696
38.45786892849059 -119.46584351394242 4.3716448276101225 -0.3968962381004649
38.45852686666398 -119.46380189082068 4.899979143421901 -0.33352939489182837
38.45742881866318 -119.46597900286741 5.389847673743639 -0.2724973723487982
38.46130802615963 -119.46591928809315 4.055797961656588 -0.4970815659060713
38.459441462686 -119.465988671591 4.718774510833989 -0.5019071486494485
38.459415361413804 -119.46472816254683 5.19616563275988 -0.438654460507971
38.45973524572097 -119.4656671558394 5.51932032735189 -0.38471790295475966
38.46007452775012 -119.46454626829171 6.120036007979793 -0.32630098555391596
38.46205712294547 -119.46455772226781 4.115600123631013 -0.5976023292619469
38.46259157788639 -119.46446946614597 4.402255547394305 -0.6114575027141519
38.46159997660745 -119.46401792152803 4.775750132136312 -0.5517258039105966
38.46258205074417 -119.46416102197178 5.301938528555316 -0.5083367697304436
38.462994153631826 -119.46431923490738 6.2356009749309695 -0.4719765644021374
38.46472333911855 -119.4655060386918 3.690812658072345 -0.5673273578952995
38.46493210890401 -119.46591801299434 4.183315555499628 -0.6973366528022549
38.46375299306624 -119.46542522659949 4.644815254997024 -0.7242426151852832
38.46412911508828 -119.46386642172362 4.893135366869058 -0.6705798026263133
38.464359812522794 -119.46597259215508 5.272603833476626 -0.637207119423817
38.46513817353241 -119.46396135760465 6.226682745758002 -0.5960629750869112
38.4654049829421 -119.46410814358362 6.3711960201783 -0.2583750987817672
38.46749108041936 -119.46456737649 3.6807445082947203 -0.6394542857919228
38.4673306628232 -119.46450204282162 4.155132508335544 -0.7941954824959108
38.46608518824258 -119.46489737655234 4.482999367411441 -0.8389541396914554
38.466561903745514 -119.46366460380204 4.790121105682225 -0.7938728897650185
38.46593972601172 -119.4660083330919 5.383779959093443 -0.7600933626860386
38.466814691829875 -119.4656212766828 6.2118214446799165 -0.6922586851043696
38.466243322060336 -119.46511633975054 6.607732030882949 -0.31816725249727784
38.46888875916145 -119.46489515591371 3.29676329075833 -0.7034386834279649
38.46910575747311 -119.46569072403338 4.150544914001202 -0.885928325670344
38.469430435330324 -119.46405772954245 4.45680303581638 -0.9535284944983501
38.46809729388482 -119.46355859703871 4.842299010358982 -0.9199882753592892
38.46863683260013 -119.4650557058107 5.507131717258146 -0.8720663096530171
38.468729920929945 -119.46549350014897 5.9117771225770035 -0.762161087323049
38.468219143004795 -119.4653370264841 6.618293854120189 -0.3589528156833662
38.47131648622827 -119.4638981369128 3.741758852131176 -0.7574260102934579
38.47192899953479 -119.46640874438339 3.7707309237501083 -0.9701213340236411
38.47119265977654 -119.46456345680407 4.333900156085633 -1.064913065938321
38.471427602201935 -119.46606346704809 5.069940271592628 -1.0461063744864638
38.47104359073024 -119.4636205166688 5.678152251516971 -0.9766246047294065
38.47043144586734 -119.46607044262358 5.916565167294761 -0.8147988817653181
38.47079263845227 -119.4648261171608 6.475211625022915 -0.39926472652339307
38.47430494916208 -119.4655256745397 3.0985944355352455 -0.4874543001990369
38.47481825750859 -119.46387163087634 3.456141394567324 -0.7998723001783286
38.474520659718976 -119.46558319778526 4.245375149632391 -1.044318103904551
38.4745520228173 -119.46372040088737 4.6179400537488755 -1.1693974361032928
38.473973363188584 -119.46572886234894 4.882501478075416 -1.1684111237318957
38.47411370278235 -119.4654043387433 5.64522858499999 -1.079169837415599
38.47458311968644 -119.4657533578472 5.972677566673651 -0.8689338944372722
38.472653634492524 -119.46590428289636 6.624683041900774 -0.4503902435004337
38.476546511352645 -119.46571972886981 2.853778067724119 -0.4938320780876738
38.475239122605274 -119.46374089651934 3.3979100029055336 -0.829608123333815
38.47515053418974 -119.46505063846804 3.969225898162259 -1.1061565449108812
38.475653414810864 -119.46428230038651 4.537570765046543 -1.2631108222667273
38.4748506097386 -119.46481378201133 5.197265355384977 -1.2828428735475437
38.475262331890264 -119.46595718947412 5.693041169412644 -1.181434078508361
38.47698938613211 -119.46630224460345 6.190261816803264 -0.9360246876354743
38.476730871361845 -119.46607730698994 6.379262846620878 -0.5151263554224379
38.47768954791185 -119.46598174414424 3.195051417770064 -0.4907393658969918
38.478494542952006 -119.46566682696877 3.6450441424982865 -0.8459202538462645
38.477204897374705 -119.46370452103193 4.053792780637196 -1.1534951166595986
38.477562995099085 -119.46461291117606 4.377129110405043 -1.3424586522840287
38.4788306025467 -119.46423218968066 4.87068488797064 -1.3855994124097237
38.47805704727265 -119.46489536883573 5.3785834230148595 -1.2817193566652265
38.47818320804133 -119.46509759520944 6.032447314705854 -1.0157636559174439
38.47734401274842 -119.4639460767622 6.523835873931701 -0.5918129626325627
38.48047051387584 -119.46625656603669 2.9832034759347095 -0.4818188984531877
38.48131923432722 -119.4659915136396 3.444295678872764 -0.8488572138582834
38.4815596953831 -119.46518394683808 3.9385699948283888 -1.1846653225605361
38.479553049612214 -119.46481090243265 4.454304693454015 -1.4045456114720558
38.48155517048554 -119.46450372899976 5.187625248866785 -1.4734597293126976
38.479706404026935 -119.4637841250704 5.484451435478986 -1.3767322324462243
38.47972487955962 -119.46432564988115 6.078414257622923 -1.1033352631278965
38.48000272376289 -119.46375095531477 6.488274475694636 -0.6773444992590446
38.48031650903423 -119.46511693387934 7.155384901309612 -0.2158268334153509
38.48349186974255 -119.46432507942347 3.2298429385250667 -0.47260706441537287
38.4817087794387 -119.46608856049563 3.4201446713783032 -0.8399977645446891
38.482968278702664 -119.4635587425722 4.232094066868886 -1.199031624534563
38.48179941911725 -119.46561359016901 4.602891900210378 -1.4476492563931018
38.48176131414961 -119.46637115688935 4.874574194512963 -1.544165784277513
38.48321728664747 -119.464183697819 5.669033835225906 -1.4630762608503718
38.48235496132967 -119.46379831210835 5.946017587573376 -1.1934635202394228
38.483804221869015 -119.46449086367517 6.705039738504421 -0.7685276479393357
38.482864356236995 -119.46400726619083 7.1189587276137996 -0.2978953016816847
38.48589867299333 -119.46585465559927 3.0607495248489682 -0.46358009958304697
38.485102691705286 -119.46509592753871 3.7301746323186094 -0.8230817640456495
38.48485656031563 -119.46368793869664 3.890212167441663 -1.197706056949702
38.483948997796396 -119.465268155287 4.572908347704596 -1.47164206149944
38.48558273952952 -119.46444085687905 4.9573930178371635 -1.596754774988553
38.4842257778223 -119.46432769483266 5.353561723569329 -1.5382539416266583
38.48544420463971 -119.46480260944143 6.155338542896308 -1.2819387504038755
38.484365576594946 -119.46367427281105 6.4675962377505325 -0.8626890378202647
38.4840552399913 -119.46560916095754 6.794458386558179 -0.38323375560101997
38.48625119909736 -119.4659442494484 3.074867322346347 -0.4488648344772835
38.48708519708508 -119.4657656519572 3.391496724869469 -0.8027052624809776
38.486634278107395 -119.46403703938506 3.854738422710657 -1.1836924483275066
38.487549166027826 -119.46464961590078 4.551022661902115 -1.478109576171252
38.486955131707916 -119.46448492546747 5.01872540141899 -1.6316534585933322
38.4882881151546 -119.46563555608739 5.33141331919512 -1.6010846230738256
38.487518780846926 -119.46396294206018 6.024678504669952 -1.3660610854400768
38.487414421551804 -119.46387218975659 6.371574530097722 -0.957904420610604
38.487319919279116 -119.46409562019153 7.164319717284762 -0.47206831150351775
38.48888320123211 -119.46378864531306 2.9895050856662477 -0.42403384769366437
38.48915332260063 -119.46365792227536 3.6356893739899525 -0.7810394393758181
38.48952028167703 -119.46609424747024 4.128753566435335 -1.1608973145239412
38.49018634831904 -119.46457180068532 4.487741473429872 -1.4699787815820207
38.490167480440356 -119.46430266587612 5.089648956383699 -1.6504699720581297
38.490469246119154 -119.46607516872194 5.451488314478006 -1.6516527158467769
38.49041774382128 -119.46570221832758 5.944407162605415 -1.4445510937725554
38.488880655300186 -119.46606784349626 6.285352586972095 -1.0530019471382113
38.48975569477214 -119.46505356608071 7.192851857301103 -0.5645151473649065
38.492503236613096 -119.46447532403943 2.937250711866766 -0.3858708974501045
38.49098555725767 -119.46452477237112 3.673252751427341 -0.7561789599678193
38.49189193578566 -119.46474463714152 4.178222904514174 -1.1326930223327036
38.491785390871556 -119.46505173350444 4.606124024164872 -1.4507812459008624
38.49198532101954 -119.4637730846743 5.114933502520051 -1.6555553451204676
38.49281195643256 -119.46423124636638 5.423375068851352 -1.6909903231714365
38.49142126711062 -119.46510618442363 5.969077242828619 -1.5172285633308815
38.49107109219321 -119.46470970355499 6.645120747871245 -1.1474422174974752
38.492069608592175 -119.464785236246 6.919574831099677 -0.6605152456759701
38.49485204028292 -119.46547441983572 3.0699376384252677 -0.3337394492512314
38.49345941808455 -119.46514222779264 3.526988212776027 -0.7243406733280238
38.49363983061708 -119.4654076286177 4.039720461627194 -1.101327991095744
38.49290013587243 -119.46519334691708 4.387423970337164 -1.4239180595089518
38.494086357563766 -119.46387845427405 5.223857165301489 -1.6494904933413188
38.494845960742644 -119.46502951446631 5.499617340894395 -1.7206636770347503
38.4948126018629 -119.46604603388761 6.008829459959288 -1.5846216239068982
38.494297207082724 -119.46455691663508 6.521187454033612 -1.2411338986607112
38.494077677907036 -119.46482445482359 6.932348441415173 -0.7598336338120775
38.49507548446046 -119.46381105736857 7.733793927600079 -0.2493136489277318
38.496338400728455 -119.46524726472114 2.962645371114247 -0.2689044463676096
38.496244013720585 -119.46494029921043 3.3158418029155943 -0.6831588881765521
38.49546192132685 -119.46497251841424 4.08799810759573 -1.0682685488997432
38.495277307836375 -119.46515018153585 4.4715815125682825 -1.3921394114384822
38.49529872136773 -119.46568649353121 5.1150148952349435 -1.6346479143223254
38.49630281019676 -119.46451313733525 5.624499709361535 -1.7423830991506062
38.49556311507944 -119.46517475177258 5.8004235732810105 -1.64759761436932
38.49641870855675 -119.46578128146369 6.408325966278241 -1.3342317418640572
38.49555807554188 -119.46590547284569 7.061698688464563 -0.8620759116109227
38.495838712768524 -119.46600023374282 7.362866277166603 -0.3386944849245068
38.49949440931266 -119.46603138984213 3.7352319247656727 -0.6326789514770493
38.49943571714777 -119.46632263413063 4.100408225432912 -1.0340798635638726
38.49783665524481 -119.4660901645235 4.724445953198182 -1.3570264861780867
38.498830357869814 -119.46496454859793 5.142968988548287 -1.6128873978311409
38.49784304573859 -119.46505955684842 5.4922747102612055 -1.7577096414946147
38.49846560238591 -119.4644896550477 5.9894889915120135 -1.7070804687008851
38.498814301688334 -119.46461198318498 6.5320508251155935 -1.4269712461110367
38.49954784902726 -119.46466461796145 6.962339866625998 -0.9667083469659442
38.49929665621191 -119.46504831365029 7.287163651219254 -0.43406906378974214
38.50118580207521 -119.46482617322644 3.4918280497960184 -0.5736861919632222
38.500678696763856 -119.46546427371214 3.8173716700651967 -0.9967080353670464
38.501729897773316 -119.46450643752699 4.553784228964581 -1.3181552299437649
38.50173740490136 -119.46378029646036 4.968038337774145 -1.5853546700340193
38.500931700248586 -119.46521252627586 5.467882182652998 -1.7678780773573508
38.50183210655831 -119.46457122971267 5.75529381271343 -1.7638857904998229
38.500245942465384 -119.4641645738184 6.540148122501027 -1.5195748786820402
38.501175506529584 -119.46472414316754 6.759038590312797 -1.0730890420872334
38.50176520892576 -119.46503577200626 7.488202904965169 -0.5336294729097066
38.50252885382427 -119.46637812882204 3.3388913753347196 -0.5057745068011361
38.50383349113023 -119.46451694945236 4.210465980797546 -0.9497317686718528
38.50287587316502 -119.46623051992184 4.357665515113711 -1.2724532308950822
38.50278446565785 -119.46502895989185 4.783363221512162 -1.5523679012425307
38.502339813744385 -119.46476766530331 5.714019089883759 -1.773704626667181
38.503531752294876 -119.46551408559216 5.8688335961858815 -1.818639828382207
38.50309214992521 -119.46550746522138 6.470289217150771 -1.6121952385510567
38.50289020560542 -119.4647932837332 6.781513939714417 -1.1804907910391387
38.50214604534403 -119.46407776224886 7.524493118544326 -0.635445797653956
38.50454833476533 -119.46500578557361 3.6786939292078986 -0.42819926543009285
38.505907528615445 -119.46365726270648 4.033888985538553 -0.8850050140639846
38.50476627969562 -119.46357724892229 4.5726975464444575 -1.215397436636107
38.50551917753068 -119.46589012644938 4.857826304505015 -1.513486473536932
38.50522932902302 -119.46610248487262 5.400236927867998 -1.7755238842492984
38.50607931030091 -119.466162191174 5.879854926515338 -1.8716729397479943
38.50579480322914 -119.46595350586463 6.461452475910064 -1.704766716213067
38.50499667521963 -119.46529996642604 6.831106458482777 -1.2880353766354393
38.50494852090545 -119.46585329556223 7.707532146574849 -0.7376135550572358
38.50835205835591 -119.46488877980381 3.711244328318222 -0.34301653970139645
38.50663266825034 -119.46564678824667 4.153702212104868 -0.8000007577660444
38.50837908629055 -119.46601155143684 4.734679216268024 -1.1443448340367592
38.50832182103521 -119.46633400320657 4.94821649866122 -1.4678432397146497
38.50765173106678 -119.46593070489104 5.657915065004665 -1.7731167440331257
38.50859902988136 -119.46586999731083 6.102403569671488 -1.922750079666893
38.50651517515807 -119.4635602469991 6.674254020471941 -1.7965932658563633
38.507322891283074 -119.46423075230335 7.086723574340855 -1.394426682862441
38.50809960917522 -119.46624211553836 7.664578508813101 -0.8382867966038906
38.509631693518365 -119.46402975653993 3.4152499372445395 -0.25599561244404984
38.50952919205456 -119.46507042697986 4.031332274923982 -0.7012126915360215
38.510609739768185 -119.46509600256283 4.441301786214808 -1.060700340563847
38.50997688952876 -119.46438028728551 5.046628251203339 -1.4145901441611102
38.5093171828648 -119.46577695222427 5.604581446669951 -1.7656299460978355
38.508748919394876 -119.46518820757548 5.850313958735653 -1.9705891960051525
38.50963383918117 -119.4659729797185 6.440431179120571 -1.8856138724853715
38.509852658447684 -119.46492334801445 6.830118630986627 -1.4974515616767803
38.509086896507114 -119.46386234657672 7.611955976985221 -0.9355510096978533
38.51122801268722 -119.46616107703319 4.153068046737348 -0.5989628949666296
38.51087611933155 -119.46502531198824 4.506613368512857 -0.9685153929708723
38.51267673377748 -119.46606603918423 4.927955151439004 -1.3532043077434799
38.51300824552603 -119.46383895597415 5.3057166393834 -1.751507099136719
38.51175064686316 -119.46613208152687 5.825858528381367 -2.012336293126739
38.51094328704621 -119.46612442074436 6.699819933487891 -1.9676375452192902
38.51279267987369 -119.46503324607791 7.0944046892995365 -1.5934624188598057
38.5152103089587 -119.46500871782288 4.041740503873564 -0.5013819587090769
38.51489005427617 -119.46393910479415 4.524314523253978 -0.8720539927112666
38.51481460567499 -119.46447916322396 5.063004646516775 -1.283602111816624
38.51466005419636 -119.46400536604251 5.70782571569748 -1.7284324729303329
38.514278698011054 -119.4653656866282 5.9214794551576295 -2.043352332529952
38.51482379118038 -119.46428147217635 6.606704333777754 -2.036252438617925
38.51359764516318 -119.46373576521829 7.018344749120631 -1.677336700438347
38.516957143139535 -119.4641788531403 3.90032763918883 -0.4133793481269817
38.51673641057592 -119.46378476253723 4.548507317283426 -0.774970280539107
38.515669937026395 -119.46395806398444 4.781973228355785 -1.2061529937481703
38.51689677697238 -119.46501530335102 5.559530463776284 -1.6932933881223131
38.51576183133974 -119.46578949219305 6.006450125780763 -2.05751392437567
38.517080175948685 -119.46616083079483 6.286071336073215 -2.083960602376489
38.51550641422826 -119.46382574316453 7.0601953160356725 -1.7433182864617531
38.518304005089895 -119.46462502005564 4.222134905718042 -0.3374403611413042
38.51913478934115 -119.46526345235252 4.4687977296221595 -0.6803282761486538
38.519812494284714 -119.46616872382518 4.770809466576701 -1.1216713271288514
38.5182328953357 -119.46479553571204 5.318777099298714 -1.6423550542261143
38.51866881677925 -119.46498226420734 6.148635082212471 -2.047857435531214
38.518933604464266 -119.46456491817872 6.541901051401092 -2.10401447061298
38.51791391352829 -119.46365585045562 6.9407327053657895 -1.7864210631655433
38.52165127184638 -119.46570366847531 4.242670116832341 -0.27306987622060863
38.52134055449715 -119.46638489889554 4.521329047482631 -0.5901832141740778
38.520024037165385 -119.46544840785837 4.980146791147884 -1.031458523842859
38.52089231055354 -119.46397359028072 5.460984810607154 -1.572197504926267
38.52084717871639 -119.46457271826222 5.959861369453686 -2.0077155295859415
38.520755802525116 -119.46592312684731 6.674434291486465 -2.0917350352116166
38.52002631583656 -119.4638908543305 6.816205476168845 -1.8034243507176508
38.523675552386585 -119.46463902533067 3.8487557446188934 -0.21562920430457694
38.523238395002515 -119.46621633813042 4.258581863095576 -0.5048592674805382
38.522357882208645 -119.46411389419882 5.040373041067141 -0.9373442413319011
38.522737228320885 -119.4658237749865 5.676238803581367 -1.4817270572125014
38.522362572433934 -119.46421505077763 6.198203067371426 -1.933232378306566
38.5233612059571 -119.46497497202682 6.530503091799614 -2.0451775392326383
38.525369975474625 -119.46565586751547 4.442152986939489 -0.42263848772813345
38.52489153370723 -119.46617546895502 4.87269089734345 -0.8414521122859554
38.52446148654468 -119.46612944646081 5.300175094973985 -1.3740201695897134
38.525588980971094 -119.46426174558552 6.057955568084256 -1.8266086347572332
38.52560675407138 -119.46376490863213 6.575429167721138 -1.96589283370044
38.52841954490769 -119.46546240192828 4.387364793657419 -0.34032460889483246
38.526997209680815 -119.46431487404237 5.1148697535092325 -0.7455558683918851
38.527909652842 -119.4653370924759 5.4677541312913736 -1.2557456239854436
38.52869899771496 -119.46478266173717 5.85891656851716 -1.6965614976214918
38.527414173471314 -119.4657173544605 6.537596237110099 -1.8592449680969592
38.53097418417478 -119.46362012125296 4.556609384593999 -0.2546660484299636
38.53064378278366 -119.46505973539152 4.776802096177919 -0.6504384141513598
38.53068718186798 -119.4663972874371 5.713493823009416 -1.1340876884603401
38.529798822443915 -119.46581787118828 6.022533805080429 -1.554449720724641
38.529465448516625 -119.46373234054832 6.3366833963145615 -1.7331622933951574
38.53315847533175 -119.46368344033445 4.927966158639037 -0.5558223317025102
38.53203366465879 -119.46395761539101 5.674876150764938 -1.0138813210065545
38.532315514926665 -119.46466664765536 6.197021944173662 -1.409609423875047
38.533023800069486 -119.46554663858771 6.617158544357842 -1.5958790647824457
38.53452859817134 -119.46465643184285 4.852101286155594 -0.46087055524408393
38.53473884188326 -119.46544477883661 5.702267280176648 -0.8968898859398191
38.53558393404516 -119.4655680771462 5.94318700247502 -1.2674202849336638
38.5367743799741 -119.46375589422387 4.931597500000111 -0.36475751578198984
38.53686807414766 -119.46490939653782 5.717583901548316 -0.7826817732786797
38.53761494646831 -119.466172325968 6.002782874323468 -1.1298702609525235
38.538759782944815 -119.46370736325188 5.050559634315607 -0.26699122940641595
38.53800956150771 -119.46594492489616 5.442535895661081 -0.669860136096149
38.53953499689323 -119.46450108210081 6.2308230436766125 -0.9969282924716761
38.541216407017295 -119.46472202871733 5.39550401882209 -0.5570882574252306
38.5413591689908 -119.46435911537753 6.154951642683837 -0.8677948776314074
38.542449361125826 -119.46604321156329 5.401254257060495 -0.44383754793560903
38.54244986192102 -119.46523547463306 6.172314716363758 -0.7417866348375082
38.54659778898356 -119.46403933061627 5.290824943425459 -0.3307601660797855
38.54816619231022 -119.46388025968521 5.356475557566616 -0.21951990091459633
38.453823397642246 -119.4617803970213 4.391450993220831 -0.2408659831751743
38.453923688396436 -119.46279677259159 4.895326158939181 -0.21649478093426544
38.454846835258515 -119.46338791057373 4.4220822285295025 -0.3249139301857856
38.45458158406065 -119.46094765027316 5.248454669290335 -0.297704318846492
38.45591839803953 -119.46107398623836 5.54825594149367 -0.291790141478795
38.456857297201466 -119.4613806352674 3.882216806871299 -0.40785126840537345
38.45706665177838 -119.46184586753799 4.739482520138881 -0.4168881548956264
38.457899260588924 -119.46345170528669 4.887572278733693 -0.38956109991735016
38.458212294295386 -119.46305617682778 5.65109490680723 -0.39909170275146494
38.45969138086786 -119.46172424482657 3.971358618381255 -0.5011872599607363
38.459826677126294 -119.46335503033615 4.27099621792733 -0.51592324933708
38.460308608144004 -119.46112182588867 5.166277961456168 -0.492185529190027
38.461056604362795 -119.46289491211297 5.530636604758863 -0.5141084215159315
38.46077248943337 -119.46227296196798 6.151315089919017 -0.5147786314666206
38.46225096033468 -119.46278883123841 4.088492870635278 -0.596691532767535
38.46302589193741 -119.46176790014438 4.597552346958017 -0.6206856520632182
38.46239767541115 -119.46260653914733 4.764653616353258 -0.603524264999549
38.46273559495587 -119.46174922494875 5.540861913252021 -0.6357509538446551
38.463255449114754 -119.46243843041151 5.885565481595041 -0.6467399603341671
38.46248178245278 -119.46213614885436 6.363655423295267 -0.3394968382272024
38.46372071127664 -119.46137054832961 3.4859775369130896 -0.5678822780642957
38.46403716010756 -119.46289170138986 4.008605139379221 -0.6927103168639378
38.46464992564851 -119.46249540091337 4.628186490022182 -0.7297441871428706
38.464621375092044 -119.46334460963229 4.869182561616435 -0.7203390771256052
38.465240607060636 -119.46207742682431 5.585018741657801 -0.7576164005871426
38.465448803905026 -119.46264652775591 6.130626353874928 -0.7611206339443657
38.46424617720024 -119.46206796113185 6.336088707104677 -0.43584478499185775
38.467452926426795 -119.46072324031343 3.274946224445356 -0.6394374753939769
38.467342204901364 -119.46110689779312 4.054079954783758 -0.7875452210025863
38.46778136917446 -119.4627211995262 4.531674567271355 -0.8415963934864927
38.466784872666 -119.46091110909366 4.979074278983003 -0.8398823341527377
38.46807313571457 -119.46351151938745 5.534158271680196 -0.8702596932832192
38.46583104830783 -119.46202977610224 5.870203771596442 -0.8472322223598597
38.46608447009034 -119.4633088518442 6.412280150911449 -0.4999993237027511
38.468953586828874 -119.4614095747269 3.437901923183185 -0.7048393187033
38.46895290274137 -119.46286488489395 3.8184259908269205 -0.8793780817118154
38.469734691564724 -119.46303459406772 4.568662010278338 -0.9543252239356621
38.470171549525084 -119.46067228852162 5.16573663679374 -0.9603429846955849
38.46979836030684 -119.46126228850166 5.661723360203012 -0.970167292338949
38.47007175155492 -119.46114359543292 6.001084953450199 -0.9034667764812594
38.46931627328228 -119.46072118073157 6.327991421636465 -0.5416548265625479
38.47180492659206 -119.46097177871047 3.411943087322702 -0.7627623220830372
38.471156486310186 -119.46206503666714 3.8871604353989198 -0.9662363530186547
38.471704084167726 -119.46179081275217 4.62585200976448 -1.0652918782986962
38.47035184942172 -119.46283255484887 5.002382312479341 -1.0799792460794062
38.47166839130692 -119.46222441445768 5.252018126035214 -1.0619999980271602
38.47210678993956 -119.46259332972352 5.9831384946572035 -0.9443581728802144
38.471969592065214 -119.46346360384942 6.388488821948081 -0.5773922056491625
38.473306155787924 -119.46341682136686 3.013874492267654 -0.5067436852672176
38.47395575041201 -119.46246165269523 3.555246032782364 -0.8122522919170035
38.474322554328154 -119.46192524396027 3.7805848564451825 -1.0460105194917944
38.47475132453615 -119.46297992992216 4.307497069539031 -1.171170035326061
38.4731821504512 -119.46212895480834 5.193158210413404 -1.1963391882277528
38.47442023081581 -119.46285118969205 5.313191503875922 -1.1522127698890612
38.473995194094336 -119.46232131743164 6.033017431729445 -0.9884446453117117
38.47308217728418 -119.46122007544281 6.729890917862444 -0.6203095936888054
38.47679255055444 -119.46222233422748 3.1107538429547317 -0.5202828204624298
38.47543909517481 -119.46306069489131 3.4117199544331265 -0.8526720595477681
38.477020887521334 -119.46117952371709 4.022251916780801 -1.1164210083630857
38.47683018362937 -119.46251690516594 4.61572351295069 -1.268241914748562
38.47521177388638 -119.4610705041695 4.9988782517735215 -1.3062962112422754
38.475353329969195 -119.46130888948151 5.724511539016297 -1.243594775226001
38.47707253571636 -119.46127340593893 6.12009527638551 -1.0453716399152222
38.475901409763146 -119.46189350523613 6.341049086785462 -0.6758783715141201
38.47688082264371 -119.46268518291674 6.786872635772299 -0.2516707464160072
38.4789562558184 -119.46073094362667 3.0531104948839505 -0.5257028544844313
38.478777129525795 -119.46211804348037 3.628597730408182 -0.8832823271642917
38.47775904710326 -119.46162117541228 3.7814544824246497 -1.1748681414976476
38.477961799282184 -119.46224702505829 4.538788058223794 -1.3527537561203273
38.477277562149425 -119.46125170237251 4.951978273993081 -1.4065058742587306
38.47746467201918 -119.46301802699708 5.499225982580988 -1.335069812889848
38.47731562881515 -119.4634935652894 6.227597634023611 -1.1153972507598024
38.478736702992556 -119.46209435866803 6.6085702904062185 -0.7439029357862798
38.478885721009036 -119.46338348231002 6.777069774736687 -0.32527652971525456
38.48040705838023 -119.46319791422435 2.8660818247035738 -0.5242621742989149
38.479366857804685 -119.46185093318648 3.358613492561451 -0.9024585252117067
38.48145357053483 -119.46337505870802 4.153783578115386 -1.2183750201513228
38.480150680000804 -119.46212702804611 4.4478146280896595 -1.4213174940802515
38.48007081204271 -119.46277351917055 5.119180947366005 -1.4938881823782209
38.480584313990555 -119.462650334585 5.389776729331498 -1.4236536618467703
38.48135818872153 -119.46186225785699 5.926657887098033 -1.1945055535369435
38.47955481455725 -119.46343626049456 6.449835531850435 -0.821731223082899
38.47990966490028 -119.46138150820242 6.923844051866257 -0.40202280748888325
38.482142301267125 -119.4608919719525 3.100987729507992 -0.5181524718490199
38.48171604723857 -119.4612003540434 3.6269783320631253 -0.9077243293237234
38.48336376394522 -119.46307010302404 3.864119730019885 -1.244189096172609
38.48300649331884 -119.46236563175472 4.505527463424328 -1.4714832117939243
38.48344781921823 -119.46228226373772 5.203180270719211 -1.5661000889569467
38.4826566972238 -119.46159673896864 5.291385942145297 -1.5060905526377937
38.48232940543719 -119.46223534429957 5.866480297036198 -1.2779247762578552
38.48369077629187 -119.46306293039987 6.725939826717365 -0.906249238067248
38.482809846270946 -119.46091610277537 6.789489701924177 -0.4815516048996086
38.48547652941608 -119.46146045329616 3.099292559464925 -0.5100633533533115
38.4853988484504 -119.46087067903625 3.629445078315101 -0.8984829950536355
38.48506883443789 -119.46218275404651 4.249832766564492 -1.2513635738711695
38.48554506319556 -119.46254812164752 4.252918293480818 -1.5024509809757378
38.48536167190859 -119.46267079768627 5.125451592493352 -1.621961323856554
38.483885442852376 -119.46067452272521 5.695449370787589 -1.5798267291221433
38.484781005524525 -119.46235023755614 6.0870249484299945 -1.3616359159480698
38.484518064511455 -119.46150854604873 6.3949158625205875 -0.9947609620059651
38.48424925455132 -119.46225596786267 6.979285176731416 -0.5638970049840544
38.488221079096526 -119.46127618368791 2.848833033293362 -0.49648227966493097
38.486487794903084 -119.46130754571075 3.60712878573969 -0.8789960936914326
38.48722667277369 -119.46127000591983 4.201854143720183 -1.242287820067626
38.48803888085733 -119.46084570591466 4.488047383802527 -1.5155582669214724
38.48761924108787 -119.46120046404894 5.1269996286274475 -1.6616821938175799
38.48831085240825 -119.4613636759082 5.643705192385923 -1.6434529056192126
38.48753227025595 -119.46331127641074 6.084703535158334 -1.4428643930020282
38.48771903330162 -119.46260390504813 6.749098808365533 -1.0852815451426716
38.487922744873494 -119.46097958547308 6.892054722383255 -0.6493078574992426
38.48649184619585 -119.46067115493534 7.413356271621291 -0.2313327726368105
38.488705837374496 -119.46172896927168 3.1242758680305305 -0.4744551642992313
38.48916582640893 -119.46322638718824 3.5386575204619737 -0.8558536355083594
38.49014510372844 -119.46347119085013 3.9169920568367536 -1.222246462106545
38.48858366119053 -119.46130571273727 4.590647682365382 -1.5140779726111964
38.48965724372287 -119.46137898070184 5.152354620421067 -1.6867612810850712
38.4901215899204 -119.46320056743714 5.318360377682727 -1.6967419934558958
38.48983832115398 -119.46350124439239 5.9953341558307445 -1.5200909078856117
38.49001200018961 -119.46067410002347 6.394106557427129 -1.176550803376009
38.48849874437438 -119.4634299879186 7.191271663435812 -0.7380496056081247
38.489060310671654 -119.46327675741412 7.534170683467957 -0.2972604101299776
38.49249327062857 -119.46240412660244 3.043222817886261 -0.44653122321332417
38.49257124857477 -119.46226761351146 3.3567319226853045 -0.8317605691891544
38.490744437966214 -119.46092603013766 3.833863026909225 -1.1968675300675815
38.49197547040251 -119.46274208407357 4.254322816789398 -1.5022558301959426
38.49195934513721 -119.4623638001859 5.024305389505375 -1.6995570694226998
38.49195898423841 -119.46121730798501 5.746499470506069 -1.7404164197990846
38.49140209781348 -119.46096741411546 5.867645806719894 -1.5928337044901775
